ncols        152
nrows        32
xllcorner    3.12429341889
yllcorner    42.6204417633
cellsize     0.004729918180
NODATA_value  -9999
-164.62852478027344 -156.19227600097656 -142.55413818359375 -142.55413818359375 -120.92658996582031 -85.328590393066406 -64.683059692382812 -107.29789733886719 -137.41166687011719 -137.41166687011719 -158.29493713378906 -172.91105651855469 -183.09428405761719 -189.84295654296875 -193.65150451660156 -193.65150451660156 -194.68296813964844 -192.83305358886719 -187.72346496582031 -178.64190673828125 -164.43632507324219 -164.43632507324219 -143.31158447265625 -112.39874267578125 -86.941696166992188 -135.84405517578125 -167.95089721679687 -167.95089721679687 -191.89494323730469 -210.63151550292969 -225.78228759765625 -238.34605407714844 -248.97201538085937 -248.97201538085937 -258.09829711914062 -266.03021240234375 -272.98733520507812 -279.13238525390625 -284.58953857421875 -284.58953857421875 -289.45608520507812 -293.80990600585937 -297.71456909179687 -301.22283935546875 -304.379150390625 -304.379150390625 -307.22116088867187 -309.78109741210937 -312.08670043945312 -314.16183471679687 -314.16183471679687 -316.02688598632812 -317.69931030273437 -319.19375610351562 -320.52227783203125 -321.69439697265625 -321.69439697265625 -322.71722412109375 -323.59539794921875 -324.33108520507813 -324.92401123046875 -325.3714599609375 -325.3714599609375 -325.66860961914062 -325.80914306640625 -325.78665161132812 -325.59722900390625 -325.24310302734375 -325.24310302734375 -324.73748779296875 -324.10794067382812 -323.39501953125 -322.64602661132812 -321.91140747070312 -321.91140747070312 -321.24813842773437 -320.69161987304687 -320.16644287109375 -319.45108032226562 -318.27633666992187 -318.27633666992187 -316.41976928710937 -313.69595336914062 -309.90225219726562 -304.77755737304687 -297.98797607421875 -297.98797607421875 -289.1517333984375 -277.92391967773437 -264.18988037109375 -248.97344970703125 -237.42662048339844 -237.42662048339844 -235.92672729492187 -237.66012573242187 -237.68307495117187 -243.70396423339844 -254.75143432617187 -254.75143432617187 -262.4471435546875 -264.46820068359375 -261.56161499023437 -254.25709533691406 -241.58792114257812 -241.58792114257812 -218.04588317871094 -159.90007019042969 -195.29730224609375 -205.48872375488281 -173.40776062011719 -173.40776062011719 -198.92170715332031 -206.52560424804687 -231.77835083007812 -246.79641723632812 -245.0638427734375 -245.0638427734375 -248.39283752441406 -249.054443359375 -245.889892578125 -243.88064575195312 -220.057373046875 -220.057373046875 -200.71713256835937 -181.1884765625 -225.35777282714844 -180.34245300292969 -180.34245300292969 -241.18486022949219 -251.11553955078125 -263.14987182617187 -269.30368041992187 -273.62396240234375 -273.62396240234375 -275.29559326171875 -273.87078857421875 -267.59036254882812 -251.50271606445312 -219.67921447753906 -219.67921447753906 -217.83564758300781 -203.06135559082031 -221.00117492675781 -250.15420532226562 -246.76058959960937 -246.76058959960937 -252.66502380371094 -263.75338745117187 -266.47262573242187 -258.40765380859375 -257.12347412109375 -257.12347412109375
-163.99746704101562 -155.12544250488281 -140.91267395019531 -140.91267395019531 -118.71195983886719 -82.029548645019531 -74.872322082519531 -115.02713775634766 -142.05624389648437 -142.05624389648437 -161.23689270019531 -174.86761474609375 -184.38029479980469 -190.59683227539062 -193.92428588867187 -193.92428588867187 -194.46856689453125 -192.0694580078125 -186.26693725585937 -176.19772338867187 -160.42184448242187 -160.42184448242187 -136.57504272460937 -99.827369689941406 -99.313186645507813 -142.65232849121094 -173.29812622070312 -173.29812622070312 -196.16267395019531 -214.11836242675781 -228.69778442382812 -240.82926940917969 -251.115234375 -251.115234375 -259.96432495117187 -267.6634521484375 -274.420654296875 -280.39102172851563 -285.69357299804687 -285.69357299804687 -290.42184448242187 -294.6510009765625 -298.44253540039062 -301.84765625 -304.90951538085937 -304.90951538085937 -307.66482543945312 -310.14501953125 -312.37713623046875 -314.384521484375 -314.384521484375 -316.18710327148437 -317.80184936523437 -319.24295043945312 -320.52194213867187 -321.6478271484375 -321.6478271484375 -322.626953125 -323.46307373046875 -324.15716552734375 -324.70721435546875 -325.10824584960937 -325.10824584960937 -325.35226440429687 -325.42877197265625 -325.3260498046875 -325.03424072265625 -324.55032348632812 -324.55032348632812 -323.88583374023437 -323.07354736328125 -322.16720581054687 -321.2293701171875 -320.32669067382812 -320.32669067382812 -319.5675048828125 -319.09207153320312 -318.8543701171875 -318.49502563476562 -317.58895874023437 -317.58895874023437 -315.85598754882812 -313.09817504882812 -309.078369140625 -303.4439697265625 -295.681640625 -295.681640625 -285.10678100585937 -270.90408325195312 -252.087890625 -227.83219909667969 -206.45785522460937 -206.45785522460937 -210.38165283203125 -217.46061706542969 -211.75706481933594 -221.44178771972656 -244.66055297851562 -244.66055297851562 -259.35073852539062 -264.4947509765625 -263.17950439453125 -256.98941040039062 -245.71458435058594 -245.71458435058594 -226.29421997070313 -180.62413024902344 -184.01156616210937 -204.57351684570312 -191.90170288085937 -191.90170288085937 -195.85157775878906 -217.92466735839844 -232.96147155761719 -231.65528869628906 -246.35711669921875 -246.35711669921875 -251.39280700683594 -254.54937744140625 -258.50070190429687 -253.38142395019531 -242.98890686035156 -242.98890686035156 -234.07960510253906 -212.16752624511719 -222.57606506347656 -226.86285400390625 -226.86285400390625 -186.90676879882812 -185.76345825195312 -233.218994140625 -245.84892272949219 -258.28512573242187 -258.28512573242187 -263.12716674804687 -265.07565307617187 -262.58901977539062 -254.84025573730469 -233.49398803710937 -233.49398803710937 -220.2060546875 -191.85386657714844 -216.19718933105469 -248.09298706054687 -231.57362365722656 -231.57362365722656 -264.10592651367187 -250.64814758300781 -270.40618896484375 -276.53555297851562 -277.50747680664062 -277.50747680664062
-162.74601745605469 -153.05130004882812 -137.41360473632812 -137.41360473632812 -112.15181732177734 -68.70654296875 -92.737876892089844 -127.31581878662109 -150.10609436035156 -150.10609436035156 -166.54512023925781 -178.40025329589844 -186.64825439453125 -191.83949279785156 -194.22149658203125 -194.22149658203125 -193.78669738769531 -190.25888061523438 -182.99635314941406 -170.74650573730469 -151.18937683105469 -151.18937683105469 -120.70865631103516 -79.382926940917969 -123.40444946289062 -157.86224365234375 -184.14991760253906 -184.14991760253906 -204.55038452148437 -220.87628173828125 -234.30030822753906 -245.57194519042969 -255.1898193359375 -255.1898193359375 -263.49954223632812 -270.74911499023437 -277.12185668945312 -282.75692749023437 -287.76251220703125 -287.76251220703125 -292.22463989257812 -296.213134765625 -299.7855224609375 -302.99005126953125 -305.8675537109375 -305.8675537109375 -308.45297241210937 -310.7763671875 -312.8636474609375 -314.73715209960937 -314.73715209960937 -316.41598510742187 -317.9163818359375 -319.25164794921875 -320.4324951171875 -321.466796875 -321.466796875 -322.3594970703125 -323.11245727539062 -323.72396850585937 -324.18817138671875 -324.49441528320312 -324.49441528320312 -324.6263427734375 -324.56112670898437 -324.26968383789062 -323.71884155273437 -322.87890625 -322.87890625 -321.74017333984375 -320.33773803710937 -318.7647705078125 -317.1175537109375 -315.3675537109375 -315.3675537109375 -313.62103271484375 -313.0447998046875 -314.2978515625 -315.80502319335938 -316.0491943359375 -316.0491943359375 -314.83355712890625 -312.16342163085937 -307.81011962890625 -301.2122802734375 -291.32635498046875 -291.32635498046875 -276.38754272460937 -253.69282531738281 -219.21925354003906 -152.74998474121094 -146.48756408691406 -146.48756408691406 -114.91249847412109 -163.02970886230469 -125.34754180908203 -119.99786376953125 -217.58476257324219 -217.58476257324219 -253.56170654296875 -265.19668579101563 -267.00271606445312 -263.22555541992187 -255.11895751953125 -255.11895751953125 -242.64060974121094 -224.97340393066406 -198.0599365234375 -176.09396362304687 -197.96096801757812 -197.96096801757812 -189.59251403808594 -218.09027099609375 -231.81585693359375 -230.72976684570312 -249.84147644042969 -249.84147644042969 -255.87237548828125 -263.27206420898437 -276.589111328125 -293.45730590820312 -277.2591552734375 -277.2591552734375 -254.22984313964844 -239.85043334960937 -215.33619689941406 -245.13368225097656 -245.13368225097656 -253.90971374511719 -260.30575561523437 -262.109375 -250.37469482421875 -236.21348571777344 -236.21348571777344 -213.41899108886719 -188.06333923339844 -189.16610717773437 -179.78363037109375 -204.52053833007812 -204.52053833007812 -256.92303466796875 -245.69430541992187 -197.9783935546875 -201.99656677246094 -240.31935119628906 -240.31935119628906 -266.88470458984375 -278.54745483398437 -302.61602783203125 -314.614990234375 -315.97421264648437 -315.97421264648437
-162.10966491699219 -152.04899597167969 -135.66567993164062 -135.66567993164062 -107.78843688964844 -56.863887786865234 -97.216957092285156 -131.21768188476562 -153.21177673339844 -153.21177673339844 -168.76152038574219 -179.91314697265625 -187.60643005371094 -192.31959533691406 -194.24099731445312 -194.24099731445312 -193.31321716308594 -189.20646667480469 -181.20028686523438 -167.86714172363281 -146.28561401367188 -146.28561401367188 -111.59625244140625 -89.991111755371094 -133.643798828125 -165.18959045410156 -189.4642333984375 -189.4642333984375 -208.61601257324219 -224.12603759765625 -236.98042297363281 -247.83189392089844 -257.12518310546875 -257.12518310546875 -265.17401123046875 -272.206787109375 -278.39443969726562 -283.86807250976562 -288.73046875 -288.73046875 -293.06399536132812 -296.935791015625 -300.40151977539062 -303.508056640625 -306.29513549804687 -306.29513549804687 -308.79693603515625 -311.04287719726562 -313.05844116210937 -314.865478515625 -314.865478515625 -316.48281860351562 -317.92630004882812 -319.20895385742187 -320.34103393554687 -321.3299560546875 -321.3299560546875 -322.18002319335937 -322.89212036132812 -323.46316528320312 -323.88519287109375 -324.14425659179687 -324.14425659179687 -324.21881103515625 -324.07772827148437 -323.67880249023437 -322.96881103515625 -321.89004516601562 -321.89004516601562 -320.40151977539062 -318.52288818359375 -316.37960815429687 -314.11618041992187 -311.4281005859375 -311.4281005859375 -307.52902221679687 -305.93594360351562 -309.58267211914062 -313.88327026367188 -315.23617553710937 -315.23617553710937 -314.42742919921875 -311.89285278320312 -307.47894287109375 -300.52822875976562 -289.66058349609375 -289.66058349609375 -272.2283935546875 -243.55435180664062 -194.98371887207031 -121.96813201904297 -171.84199523925781 -171.84199523925781 -106.50306701660156 -167.34046936035156 -135.99301147460937 -113.72560882568359 -212.58848571777344 -212.58848571777344 -253.06794738769531 -266.28475952148437 -269.25970458984375 -266.56134033203125 -259.79559326171875 -259.79559326171875 -249.4747314453125 -235.4720458984375 -214.47012329101562 -145.75956726074219 -192.59136962890625 -192.59136962890625 -176.47895812988281 -221.14910888671875 -227.28269958496094 -242.39958190917969 -250.14590454101562 -250.14590454101562 -250.49908447265625 -265.24368286132812 -273.52951049804687 -279.828125 -274.50216674804687 -274.50216674804687 -261.08905029296875 -248.92803955078125 -190.74508666992187 -233.74708557128906 -233.74708557128906 -241.40403747558594 -254.04371643066406 -266.78973388671875 -270.2796630859375 -269.2098388671875 -269.2098388671875 -265.38027954101562 -262.32858276367187 -261.98040771484375 -262.38430786132812 -266.70272827148437 -266.70272827148437 -270.7916259765625 -262.6864013671875 -235.60952758789062 -230.83732604980469 -246.26052856445312 -246.26052856445312 -264.75857543945312 -284.303466796875 -318.17172241210937 -338.18670654296875 -342.13076782226562 -342.13076782226562
-160.73503112792969 -150.10929870605469 -133.11967468261719 -133.11967468261719 -105.06479644775391 -60.014335632324219 -106.3348388671875 -137.64906311035156 -158.05270385742187 -158.05270385742187 -172.31753540039063 -182.39213562011719 -189.15078735351562 -192.98910522460937 -194.0115966796875 -194.0115966796875 -192.07310485839844 -186.73927307128906 -177.15277099609375 -161.72462463378906 -137.34646606445312 -137.34646606445312 -95.42919921875 -112.642578125 -151.20909118652344 -178.35183715820312 -199.32975769042969 -199.32975769042969 -216.26426696777344 -230.27033996582031 -242.05796813964844 -252.11549377441406 -260.79156494140625 -260.79156494140625 -268.342041015625 -274.95932006835937 -280.79116821289062 -285.95355224609375 -290.53900146484375 -290.53900146484375 -294.62283325195312 -298.26715087890625 -301.524169921875 -304.43801879882813 -307.04666137695312 -307.04666137695312 -309.3828125 -311.47479248046875 -313.3472900390625 -315.02154541015625 -315.02154541015625 -316.51583862304687 -317.845458984375 -319.02291870117187 -320.057861328125 -320.956787109375 -320.956787109375 -321.722900390625 -322.35537719726562 -322.84848022460937 -323.19009399414063 -323.35940551757812 -323.35940551757812 -323.3232421875 -323.03021240234375 -322.40234375 -321.322998046875 -319.62591552734375 -319.62591552734375 -317.1026611328125 -313.58941650390625 -309.23715209960937 -304.7760009765625 -299.69546508789062 -299.69546508789062 -263.67062377929687 -248.09158325195312 -278.11102294921875 -309.80419921875 -313.94198608398437 -313.94198608398437 -313.99142456054687 -311.87942504882812 -307.66146850585937 -300.58926391601563 -288.74557495117187 -288.74557495117187 -267.3157958984375 -222.41473388671875 -131.55398559570312 -172.66215515136719 -161.60638427734375 -161.60638427734375 -162.97999572753906 -207.88888549804687 -203.64332580566406 -204.57681274414062 -232.448486328125 -232.448486328125 -255.85147094726562 -269.59426879882812 -274.39312744140625 -273.43447875976562 -268.6680908203125 -268.6680908203125 -260.96401977539062 -250.48139953613281 -236.45404052734375 -217.44096374511719 -196.04269409179687 -196.04269409179687 -185.89328002929687 -193.5638427734375 -224.43119812011719 -243.85618591308594 -250.81710815429687 -250.81710815429687 -260.24069213867187 -269.42828369140625 -277.12673950195312 -281.84652709960937 -282.331787109375 -282.331787109375 -277.11941528320312 -263.58331298828125 -250.20567321777344 -243.98277282714844 -243.98277282714844 -247.23193359375 -212.93045043945312 -255.08840942382813 -269.44088745117187 -278.14337158203125 -278.14337158203125 -283.6439208984375 -287.30810546875 -289.34518432617187 -289.94403076171875 -289.41091918945312 -289.41091918945312 -286.81222534179687 -279.30728149414062 -261.22970581054687 -205.17355346679687 -237.24261474609375 -237.24261474609375 -249.16546630859375 -291.04925537109375 -366.14242553710937 -427.52474975585937 -439.76217651367187 -439.76217651367187
-159.93243408203125 -149.01284790039062 -131.72694396972656 -131.72694396972656 -103.51316833496094 -59.711223602294922 -111.02110290527344 -140.32481384277344 -159.92532348632812 -159.92532348632812 -173.710693359375 -183.37841796875 -189.7467041015625 -193.18386840820312 -193.7626953125 -193.7626953125 -191.29464721679687 -185.28140258789062 -174.75869750976562 -157.94146728515625 -131.36711120605469 -131.36711120605469 -78.785316467285156 -126.77333831787109 -159.3712158203125 -184.1644287109375 -203.76663208007812 -203.76663208007812 -219.77558898925781 -233.12922668457031 -244.43896484375 -254.13250732421875 -262.52090454101562 -262.52090454101562 -269.83636474609375 -276.25595092773437 -281.91738891601562 -286.92984008789062 -291.38119506835937 -291.38119506835937 -295.343505859375 -298.87664794921875 -302.03106689453125 -304.849853515625 -307.3699951171875 -307.3699951171875 -309.6236572265625 -311.63876342773437 -313.4395751953125 -315.04718017578125 -315.04718017578125 -316.47958374023438 -317.75198364257812 -318.87664794921875 -319.86297607421875 -320.71722412109375 -320.71722412109375 -321.44207763671875 -322.0360107421875 -322.49215698242187 -322.796630859375 -322.92538452148437 -322.92538452148437 -322.83944702148437 -322.47659301757812 -321.73745727539062 -320.46249389648437 -318.39700317382812 -318.39700317382812 -315.15628051757812 -310.27728271484375 -303.67251586914063 -296.81369018554688 -291.9351806640625 -291.9351806640625 -274.88275146484375 -267.02151489257812 -287.78311157226562 -309.44631958007813 -313.68753051757812 -313.68753051757812 -314.00833129882812 -312.15310668945312 -308.20941162109375 -301.46981811523437 -290.03741455078125 -290.03741455078125 -268.83078002929687 -219.173095703125 -129.05305480957031 -136.50349426269531 -130.86265563964844 -130.86265563964844 -202.43310546875 -227.25827026367187 -230.44955444335937 -228.13603210449219 -225.89276123046875 -225.89276123046875 -252.775390625 -271.19134521484375 -277.22927856445312 -276.95303344726562 -272.90499877929687 -272.90499877929687 -266.06536865234375 -256.67538452148437 -244.37431335449219 -228.08076477050781 -200.4573974609375 -200.4573974609375 -187.19221496582031 -166.71405029296875 -218.70497131347656 -240.70213317871094 -249.50895690917969 -249.50895690917969 -260.78939819335938 -270.858642578125 -279.45944213867187 -285.58328247070312 -288.26223754882812 -288.26223754882812 -286.36886596679687 -278.98898315429687 -270.1356201171875 -263.7137451171875 -263.7137451171875 -252.68647766113281 -222.68276977539062 -228.095458984375 -249.00787353515625 -267.86956787109375 -267.86956787109375 -278.18170166015625 -285.87567138671875 -290.16729736328125 -291.58377075195312 -291.39364624023437 -291.39364624023437 -289.43673706054687 -282.64212036132812 -261.89407348632812 -208.75424194335938 -244.29716491699219 -244.29716491699219 -264.77224731445312 -301.97445678710937 -386.78561401367187 -425.94427490234375 -417.12149047851562 -417.12149047851562
-159.00703430175781 -147.70710754394531 -129.84062194824219 -129.84062194824219 -98.572822570800781 -59.838508605957031 -114.10466003417969 -142.34356689453125 -161.44206237792969 -161.44206237792969 -174.88560485839844 -184.22099304199219 -190.23968505859375 -193.2940673828125 -193.42860412597656 -193.42860412597656 -190.40802001953125 -183.65606689453125 -172.05281066894531 -153.40275573730469 -122.69789886474609 -122.69789886474609 -85.229583740234375 -136.11941528320312 -166.28823852539062 -189.34587097167969 -207.82798767089844 -207.82798767089844 -223.05220031738281 -235.8316650390625 -246.70773315429687 -256.06338500976563 -264.18032836914063 -264.18032836914063 -271.27130126953125 -277.50045776367187 -282.99664306640625 -287.8629150390625 -292.18289184570312 -292.18289184570312 -296.02569580078125 -299.44900512695312 -302.50177001953125 -305.22598266601562 -307.65786743164062 -307.65786743164062 -309.82901000976562 -311.76693725585937 -313.4957275390625 -315.03622436523437 -315.03622436523437 -316.40634155273437 -317.62106323242187 -318.692626953125 -319.6302490234375 -320.43988037109375 -320.43988037109375 -321.1239013671875 -321.68020629882812 -322.10107421875 -322.37106323242187 -322.46343994140625 -322.46343994140625 -322.33407592773437 -321.91061401367187 -321.07244873046875 -319.6131591796875 -317.16952514648437 -317.16952514648437 -313.09817504882812 -306.34994506835937 -295.9058837890625 -283.7928466796875 -278.7412109375 -278.7412109375 -282.55996704101562 -289.2845458984375 -300.43548583984375 -310.07574462890625 -313.69784545898437 -313.69784545898437 -314.17529296875 -312.59304809570312 -309.02877807617187 -302.88156127929687 -292.5394287109375 -292.5394287109375 -273.91018676757812 -235.06950378417969 -163.77812194824219 -157.042724609375 -198.68638610839844 -198.68638610839844 -229.11686706542969 -243.47677612304687 -245.73554992675781 -230.2943115234375 -111.53903198242187 -111.53903198242187 -242.17074584960937 -273.04983520507812 -280.31735229492187 -280.53875732421875 -277.05178833007812 -277.05178833007812 -270.90335083007812 -262.35089111328125 -251.04388427734375 -235.04689025878906 -193.42909240722656 -193.42909240722656 -191.66264343261719 -194.34114074707031 -202.9554443359375 -236.28471374511719 -247.01437377929687 -247.01437377929687 -259.609375 -271.132080078125 -281.27920532226562 -289.23495483398437 -294.25027465820313 -294.25027465820313 -295.58193969726562 -292.95932006835937 -287.98812866210937 -280.939697265625 -280.939697265625 -260.90689086914062 -211.98834228515625 -211.72084045410156 -228.00834655761719 -235.472900390625 -235.472900390625 -258.98077392578125 -276.1240234375 -284.21710205078125 -286.53854370117187 -287.2923583984375 -287.2923583984375 -287.71176147460938 -283.21932983398437 -259.65087890625 -238.8433837890625 -240.53213500976562 -240.53213500976562 -262.92230224609375 -310.3673095703125 -390.30572509765625 -418.86846923828125 -402.97711181640625 -402.97711181640625
-156.72125244140625 -144.36622619628906 -124.835693359375 -124.835693359375 -91.891403198242188 -68.389144897460937 -115.27041625976562 -144.37828063964844 -163.63734436035156 -163.63734436035156 -176.76115417480469 -185.583251953125 -190.98095703125 -193.3035888671875 -192.53793334960937 -192.53793334960937 -188.33686828613281 -179.93536376953125 -165.86538696289062 -143.05320739746094 -103.55651092529297 -103.55651092529297 -103.61144256591797 -147.65043640136719 -176.48419189453125 -197.83775329589844 -214.85293579101562 -214.85293579101562 -228.91026306152344 -240.76756286621094 -250.90803527832031 -259.6673583984375 -267.29122924804688 -267.29122924804688 -273.96588134765625 -279.836181640625 -285.01715087890625 -289.60186767578125 -293.66680908203125 -293.66680908203125 -297.27578735351562 -300.48281860351562 -303.33419799804687 -305.86993408203125 -308.12503051757812 -308.12503051757812 -310.130126953125 -311.9122314453125 -313.49502563476562 -314.89920043945312 -314.89920043945312 -316.14254760742187 -317.24008178710937 -318.203857421875 -319.04293823242187 -319.76315307617187 -319.76315307617187 -320.366455078125 -320.85015869140625 -321.20559692382813 -321.41574096679687 -321.45074462890625 -321.45074462890625 -321.2603759765625 -320.75885009765625 -319.79446411132812 -318.08340454101562 -315.0516357421875 -315.0516357421875 -309.41561889648438 -297.9532470703125 -272.16461181640625 -221.42730712890625 -191.99293518066406 -191.99293518066406 -252.12460327148437 -289.47564697265625 -304.21539306640625 -311.07107543945312 -314.11428833007812 -314.11428833007812 -314.81512451171875 -313.79891967773437 -311.18475341796875 -306.692138671875 -299.6025390625 -299.6025390625 -288.69564819335937 -273.0313720703125 -256.67568969726562 -251.32731628417969 -256.57965087890625 -256.57965087890625 -262.73797607421875 -265.53842163085937 -264.04220581054687 -252.69160461425781 -231.39485168457031 -231.39485168457031 -261.77908325195312 -281.56137084960937 -287.54714965820312 -287.92153930664062 -285.14385986328125 -285.14385986328125 -280.03173828125 -272.75961303710937 -262.96844482421875 -249.33224487304687 -228.60870361328125 -228.60870361328125 -182.4195556640625 -209.13459777832031 -171.54335021972656 -233.48202514648437 -236.63911437988281 -236.63911437988281 -250.833984375 -267.11801147460937 -282.15603637695312 -294.84881591796875 -305.10720825195312 -305.10720825195312 -312.71817016601562 -317.20086669921875 -317.8111572265625 -312.40350341796875 -312.40350341796875 -292.35369873046875 -257.21710205078125 -254.59675598144531 -265.2576904296875 -242.17059326171875 -242.17059326171875 -236.881103515625 -232.86277770996094 -185.88032531738281 -182.79853820800781 -178.71888732910156 -178.71888732910156 -248.24049377441406 -266.78640747070312 -261.95742797851562 -197.99476623535156 -247.2940673828125 -247.2940673828125 -233.70352172851562 -258.69180297851562 -359.6798095703125 -445.51486206054687 -427.992919921875 -427.992919921875
-155.35992431640625 -142.37005615234375 -121.87803649902344 -121.87803649902344 -88.063278198242188 -62.887344360351563 -114.25594329833984 -145.14292907714844 -164.60414123535156 -164.60414123535156 -177.58540344238281 -186.16427612304687 -191.26498413085937 -193.22927856445312 -192.00657653808594 -192.00657653808594 -187.18013000488281 -177.87428283691406 -162.47677612304687 -137.76898193359375 -96.372032165527344 -96.372032165527344 -114.11763763427734 -152.96786499023437 -180.60989379882813 -201.38058471679687 -217.90274047851563 -217.90274047851563 -231.52833557128906 -243.01737976074219 -252.84748840332031 -261.34490966796875 -268.74569702148437 -268.74569702148437 -275.22781372070312 -280.9293212890625 -285.96005249023437 -290.40908813476563 -294.34994506835937 -294.34994506835937 -297.84426879882812 -300.94442749023437 -303.69561767578125 -306.13705444335937 -308.30313110351562 -308.30313110351562 -310.2242431640625 -311.92718505859375 -313.435546875 -314.77008056640625 -314.77008056640625 -315.94857788085937 -316.98611450195312 -317.89480590820312 -318.68377685546875 -319.35882568359375 -319.35882568359375 -319.92190551757812 -320.37033081054687 -320.69546508789063 -320.88018798828125 -320.894775390625 -320.894775390625 -320.68865966796875 -320.17483520507812 -319.19744873046875 -317.45867919921875 -314.33615112304687 -314.33615112304687 -308.35647583007812 -295.36920166015625 -260.65328979492187 -164.5491943359375 -103.61007690429687 -103.61007690429687 -235.38475036621094 -287.72967529296875 -304.49893188476562 -311.43087768554687 -314.40853881835937 -314.40853881835937 -315.199462890625 -314.44851684570312 -312.32623291015625 -308.70156860351562 -303.20272827148437 -303.20272827148437 -295.37469482421875 -285.42657470703125 -276.00180053710937 -271.52053833007812 -271.84054565429687 -271.84054565429687 -272.64224243164062 -271.07339477539062 -267.97650146484375 -265.23379516601562 -265.23812866210937 -265.23812866210937 -276.77734375 -287.2431640625 -291.51193237304687 -291.6612548828125 -289.0867919921875 -289.0867919921875 -284.37890625 -277.652587890625 -268.58206176757812 -256.1336669921875 -237.49485778808594 -237.49485778808594 -195.44471740722656 -206.65299987792969 -209.17048645019531 -189.01205444335937 -221.01707458496094 -221.01707458496094 -243.240966796875 -262.56869506835937 -280.89227294921875 -296.3883056640625 -309.62496948242187 -309.62496948242187 -320.69662475585937 -328.85934448242187 -332.52923583984375 -330.06005859375 -330.06005859375 -320.16311645507812 -309.12850952148437 -301.85232543945312 -290.69427490234375 -277.80081176757812 -277.80081176757812 -259.759765625 -252.52287292480469 -245.06950378417969 -242.57470703125 -226.42982482910156 -226.42982482910156 -234.43794250488281 -181.42550659179687 -210.108154296875 -233.48957824707031 -269.53744506835937 -269.53744506835937 -217.80381774902344 -267.70785522460937 -337.93496704101562 -402.63958740234375 -428.30050659179687 -428.30050659179687
-153.86051940917969 -140.1734619140625 -118.75199890136719 -118.75199890136719 -84.354621887207031 -69.156013488769531 -116.35331726074219 -146.52656555175781 -165.69696044921875 -165.69696044921875 -178.41201782226562 -186.71548461914063 -191.51377868652344 -193.12136840820312 -191.44015502929687 -191.44015502929687 -185.97114562988281 -175.70559692382812 -158.86344909667969 -132.26539611816406 -85.7679443359375 -85.7679443359375 -120.63385772705078 -157.70657348632812 -184.37420654296875 -204.61982727050781 -220.72157287597656 -220.72157287597656 -233.97587585449219 -245.13984680175781 -254.68910217285156 -262.94461059570312 -270.13601684570312 -270.13601684570312 -276.43496704101562 -281.97421264648437 -286.85922241210937 -291.1756591796875 -294.99447631835937 -294.99447631835937 -298.37533569335937 -301.36923217773438 -304.020263671875 -306.36697387695312 -308.443359375 -308.443359375 -310.27947998046875 -311.902099609375 -313.33477783203125 -314.59829711914062 -314.59829711914062 -315.71066284179687 -316.68695068359375 -317.53952026367187 -318.27749633789062 -318.90679931640625 -318.90679931640625 -319.42947387695312 -319.84295654296875 -320.138916015625 -320.30087280273437 -320.300048828125 -320.300048828125 -320.08767700195312 -319.57992553710937 -318.62619018554687 -316.93817138671875 -313.91119384765625 -313.91119384765625 -308.10586547851562 -295.41439819335937 -260.4581298828125 -146.03370666503906 -142.95356750488281 -142.95356750488281 -243.96238708496094 -289.52133178710937 -305.35302734375 -311.90701293945312 -314.73184204101562 -314.73184204101562 -315.56478881835937 -315.04141235351562 -313.37387084960937 -310.546875 -306.41241455078125 -306.41241455078125 -300.87045288085937 -294.32510375976562 -288.23455810546875 -284.32553100585937 -282.18588256835937 -282.18588256835937 -278.943603515625 -271.50518798828125 -263.40182495117187 -266.51199340820312 -276.06024169921875 -276.06024169921875 -285.508544921875 -292.40887451171875 -295.44998168945312 -295.36135864257812 -292.93771362304687 -292.93771362304687 -288.58447265625 -282.36337280273437 -273.96737670898437 -262.44021606445312 -244.65577697753906 -244.65577697753906 -200.528076171875 -202.98394775390625 -223.50032043457031 -190.21107482910156 -202.88226318359375 -202.88226318359375 -236.28730773925781 -256.8809814453125 -278.40277099609375 -296.8121337890625 -313.31536865234375 -313.31536865234375 -328.47845458984375 -341.30996704101562 -348.4979248046875 -348.63424682617188 -348.63424682617188 -343.4873046875 -336.57180786132812 -329.64804077148437 -320.26116943359375 -306.07864379882812 -306.07864379882812 -267.50909423828125 -269.17929077148437 -287.43649291992187 -282.289794921875 -227.083740234375 -227.083740234375 -224.57795715332031 -250.497314453125 -256.40423583984375 -262.89471435546875 -264.86328125 -264.86328125 -231.5992431640625 -253.86912536621094 -309.73837280273437 -375.62615966796875 -423.72097778320312 -423.72097778320312
-150.47552490234375 -135.1639404296875 -109.95751190185547 -109.95751190185547 -67.068206787109375 -90.081245422363281 -125.96333312988281 -151.06132507324219 -168.37580871582031 -168.37580871582031 -180.1605224609375 -187.7891845703125 -191.95439147949219 -192.85887145996094 -190.28370666503906 -190.28370666503906 -183.53134155273437 -171.23361206054687 -150.98178100585937 -118.54461669921875 -80.105697631835938 -80.105697631835938 -130.62362670898437 -165.93971252441406 -191.25816345214844 -210.53923034667969 -225.87542724609375 -225.87542724609375 -238.47346496582031 -249.06440734863281 -258.11288452148437 -265.93026733398437 -272.7362060546875 -272.7362060546875 -278.69293212890625 -283.9248046875 -288.53036499023437 -292.58975219726562 -296.1695556640625 -296.1695556640625 -299.32620239257812 -302.10824584960937 -304.55810546875 -306.7132568359375 -308.60699462890625 -308.60699462890625 -310.2691650390625 -311.72647094726562 -313.0028076171875 -314.11929321289062 -314.11929321289062 -315.09432983398437 -315.94351196289062 -316.67953491210937 -317.31198120117187 -317.84695434570313 -317.84695434570313 -318.28695678710937 -318.63006591796875 -318.86917114257812 -318.99017333984375 -318.96905517578125 -318.96905517578125 -318.76583862304687 -318.31378173828125 -317.49691772460937 -316.10415649414062 -313.727294921875 -313.727294921875 -309.5247802734375 -301.69699096679687 -286.99786376953125 -266.91387939453125 -265.04296875 -265.04296875 -283.78152465820312 -299.84185791015625 -308.69204711914062 -313.18417358398437 -315.31390380859375 -315.31390380859375 -316.0245361328125 -315.76910400390625 -314.79498291015625 -313.23876953125 -311.14581298828125 -311.14581298828125 -308.53677368164062 -305.54983520507812 -302.46209716796875 -299.2978515625 -294.94189453125 -294.94189453125 -285.055419921875 -250.81489562988281 -167.22566223144531 -213.49458312988281 -278.22421264648437 -278.22421264648437 -294.8648681640625 -300.83303833007812 -302.8309326171875 -302.44158935546875 -300.2509765625 -300.2509765625 -296.49539184570312 -291.17379760742188 -284.01315307617187 -274.235107421875 -259.66070556640625 -259.66070556640625 -232.98280334472656 -126.30058288574219 -233.24757385253906 -239.44703674316406 -220.11282348632812 -220.11282348632812 -201.29693603515625 -242.75906372070312 -268.37002563476562 -292.73605346679688 -316.65423583984375 -316.65423583984375 -343.5628662109375 -379.63388061523437 -395.248291015625 -390.34814453125 -390.34814453125 -386.44580078125 -381.6734619140625 -375.08505249023437 -365.52401733398438 -349.83489990234375 -349.83489990234375 -316.396728515625 -281.5364990234375 -289.21942138671875 -294.49053955078125 -272.759033203125 -272.759033203125 -298.27481079101562 -284.7457275390625 -264.7860107421875 -259.16571044921875 -273.9908447265625 -273.9908447265625 -278.99346923828125 -284.27120971679687 -304.58721923828125 -312.60110473632812 -395.86178588867188 -395.86178588867188
-148.59164428710937 -132.58122253417969 -105.76023101806641 -105.76023101806641 -54.507778167724609 -97.329673767089844 -130.3447265625 -153.4794921875 -169.81913757324219 -169.81913757324219 -181.06416320800781 -188.31869506835937 -192.1595458984375 -192.72532653808594 -189.73440551757812 -189.73440551757812 -182.38580322265625 -169.10328674316406 -147.10881042480469 -111.63906860351562 -92.750144958496094 -92.750144958496094 -136.96978759765625 -170.12898254394531 -194.59532165527344 -213.34620666503906 -228.28994750976562 -228.28994750976562 -240.57109069824219 -250.89431762695312 -259.71145629882812 -267.32614135742187 -273.95242309570312 -273.95242309570312 -279.7479248046875 -284.83343505859375 -289.304443359375 -293.23873901367187 -296.7010498046875 -296.7010498046875 -299.74642944335937 -302.42242431640625 -304.77078247070312 -306.8284912109375 -308.62872314453125 -308.62872314453125 -310.2012939453125 -311.57302856445313 -312.76809692382812 -313.80789184570312 -313.80789184570312 -314.711181640625 -315.493896484375 -316.16900634765625 -316.74627685546875 -317.23211669921875 -317.23211669921875 -317.62918090820312 -317.93588256835937 -318.14593505859375 -318.24676513671875 -318.2174072265625 -318.2174072265625 -318.02398681640625 -317.6114501953125 -316.88760375976562 -315.69284057617187 -313.74185180664062 -313.74185180664062 -310.52142333984375 -305.18972778320312 -297.03497314453125 -288.55926513671875 -287.886962890625 -287.886962890625 -295.87298583984375 -304.55593872070312 -310.41213989257812 -313.76962280273437 -315.45068359375 -315.45068359375 -315.99578857421875 -315.74154663085937 -314.95449829101562 -313.85610961914062 -312.54086303710937 -312.54086303710937 -310.96139526367187 -309.07064819335938 -306.87545776367187 -304.150390625 -299.68753051757813 -299.68753051757813 -288.95159912109375 -249.14071655273437 -122.64591217041016 -201.89181518554687 -281.27676391601562 -281.27676391601562 -298.85519409179687 -304.5458984375 -306.2431640625 -305.75167846679687 -303.65109252929687 -303.65109252929687 -300.14202880859375 -295.20831298828125 -288.6004638671875 -279.66259765625 -266.75665283203125 -266.75665283203125 -244.89178466796875 -176.66395568847656 -232.84735107421875 -247.9034423828125 -236.99006652832031 -236.99006652832031 -194.40023803710937 -234.91957092285156 -259.3944091796875 -286.78860473632812 -314.64752197265625 -314.64752197265625 -348.77703857421875 -430.8824462890625 -447.86376953125 -415.23651123046875 -415.23651123046875 -408.5191650390625 -403.19143676757812 -396.23410034179687 -386.44723510742187 -371.07864379882812 -371.07864379882812 -341.7200927734375 -286.1458740234375 -280.8319091796875 -257.85971069335938 -312.92251586914062 -312.92251586914062 -321.63430786132812 -315.1402587890625 -307.7293701171875 -305.86392211914062 -308.4488525390625 -308.4488525390625 -310.97433471679687 -307.4912109375 -289.957275390625 -338.845458984375 -386.67486572265625 -386.67486572265625
-146.52723693847656 -129.87109375 -104.144287109375 -104.144287109375 -57.161148071289062 -102.46923828125 -133.62590026855469 -155.66267395019531 -171.22923278808594 -171.22923278808594 -181.95997619628906 -188.83787536621094 -192.35610961914063 -192.59709167480469 -189.22381591796875 -189.22381591796875 -181.34420776367187 -167.17579650878906 -143.51414489746094 -106.01725769042969 -99.2861328125 -99.2861328125 -142.8370361328125 -174.39425659179687 -197.93203735351562 -216.10035705566406 -230.630126953125 -230.630126953125 -242.59051513671875 -252.65054321289062 -261.24380493164062 -268.66348266601562 -275.11676025390625 -275.11676025390625 -280.7564697265625 -285.69967651367187 -290.03900146484375 -293.85006713867187 -297.19586181640625 -297.19586181640625 -300.13018798828125 -302.69970703125 -304.94552612304687 -306.90435791015625 -308.60919189453125 -308.60919189453125 -310.0899658203125 -311.373779296875 -312.48501586914062 -313.44558715820312 -313.44558715820312 -314.27462768554687 -314.98846435546875 -315.6004638671875 -316.12063598632812 -316.55557250976562 -316.55557250976562 -316.9080810546875 -317.17694091796875 -317.35647583007812 -317.43569946289062 -317.39675903320312 -317.39675903320312 -317.21209716796875 -316.83871459960937 -316.20822143554687 -315.20993041992187 -313.66497802734375 -313.66497802734375 -311.303466796875 -307.82339477539062 -303.33041381835937 -299.48419189453125 -299.32522583007812 -299.32522583007812 -303.13479614257812 -307.95449829101562 -311.74801635742187 -314.15731811523437 -315.39498901367187 -315.39498901367187 -315.70571899414062 -315.31982421875 -314.54931640625 -313.77548217773438 -313.17495727539062 -313.17495727539062 -312.5550537109375 -311.63189697265625 -310.23712158203125 -308.087158203125 -304.16360473632812 -304.16360473632812 -295.11984252929688 -269.87164306640625 -227.54426574707031 -251.47137451171875 -289.73736572265625 -289.73736572265625 -303.35580444335937 -308.14752197265625 -309.47869873046875 -308.87265014648437 -306.8367919921875 -306.8367919921875 -303.53445434570312 -298.93560791015625 -292.80844116210937 -284.58462524414062 -272.908447265625 -272.908447265625 -253.44793701171875 -192.16854858398437 -228.35598754882812 -254.32481384277344 -250.04885864257813 -250.04885864257813 -222.99624633789063 -203.67340087890625 -247.59906005859375 -276.39239501953125 -308.32977294921875 -308.32977294921875 -348.78170776367188 -420.95523071289062 -481.07174682617187 -443.27859497070312 -443.27859497070312 -432.39593505859375 -425.22634887695312 -417.31524658203125 -407.2550048828125 -392.57550048828125 -392.57550048828125 -367.08636474609375 -286.35226440429687 -320.95877075195312 -328.99533081054687 -335.99212646484375 -335.99212646484375 -336.23825073242187 -329.17300415039062 -323.24099731445312 -322.01364135742187 -320.17425537109375 -320.17425537109375 -311.9534912109375 -281.83657836914062 -333.44076538085937 -361.2713623046875 -385.77703857421875 -385.77703857421875
-141.66847229003906 -122.33782196044922 -90.999305725097656 -90.999305725097656 -54.097148895263672 -104.54534149169922 -138.37980651855469 -159.49905395507812 -173.88679504394531 -173.88679504394531 -183.67564392089844 -189.81626892089844 -192.70408630371094 -192.33761596679687 -188.3045654296875 -188.3045654296875 -179.61361694335937 -164.23466491699219 -137.91047668457031 -90.275413513183594 -114.60324859619141 -114.60324859619141 -154.12490844726562 -182.96136474609375 -204.58317565917969 -221.47908020019531 -235.12501525878906 -235.12501525878906 -246.42837524414062 -255.96853637695312 -264.12973022460937 -271.17703247070312 -277.30059814453125 -277.30059814453125 -282.64212036132812 -287.31094360351562 -291.39410400390625 -294.96298217773437 -298.07757568359375 -298.07757568359375 -300.78936767578125 -303.14346313476563 -305.1800537109375 -306.93536376953125 -308.44247436523437 -308.44247436523437 -309.73165893554687 -310.83078002929687 -311.76522827148437 -312.55804443359375 -312.55804443359375 -313.2294921875 -313.79705810546875 -314.27490234375 -314.67373657226562 -315.0003662109375 -315.0003662109375 -315.25765991210937 -315.4444580078125 -315.55563354492188 -315.58230590820312 -315.51190185546875 -315.51190185546875 -315.32772827148437 -315.00796508789063 -314.52383422851562 -313.8380126953125 -312.9073486328125 -312.9073486328125 -311.70248413085937 -310.26901245117187 -308.849365234375 -307.9635009765625 -308.1510009765625 -308.1510009765625 -309.42422485351562 -311.21282958984375 -312.88363647460938 -314.05072021484375 -314.5089111328125 -314.5089111328125 -314.09695434570312 -312.72113037109375 -310.80490112304687 -309.91610717773437 -311.17327880859375 -311.17327880859375 -313.18121337890625 -314.44326782226562 -314.67697143554687 -313.97515869140625 -312.13018798828125 -312.13018798828125 -308.4210205078125 -302.47439575195312 -297.86709594726562 -300.80975341796875 -307.72299194335937 -307.72299194335937 -312.64279174804687 -314.92230224609375 -315.34408569335937 -314.43197631835937 -312.42559814453125 -312.42559814453125 -309.39120483398438 -305.25753784179687 -299.78106689453125 -292.41378784179687 -281.89715576171875 -281.89715576171875 -264.72537231445312 -226.79443359375 -210.84579467773437 -265.0572509765625 -270.21835327148437 -270.21835327148437 -259.14901733398438 -223.26777648925781 -220.26925659179687 -221.51904296875 -276.9163818359375 -276.9163818359375 -335.60464477539062 -392.3790283203125 -467.05682373046875 -542.94342041015625 -542.94342041015625 -496.27487182617187 -472.91085815429687 -460.52581787109375 -449.29263305664062 -435.9173583984375 -435.9173583984375 -418.19583129882812 -393.7806396484375 -364.47427368164062 -298.78533935546875 -266.06381225585938 -266.06381225585938 -254.58184814453125 -303.25384521484375 -329.9146728515625 -320.04006958007813 -328.40374755859375 -328.40374755859375 -343.63821411132812 -360.97039794921875 -373.42721557617187 -384.66329956054687 -394.83059692382812 -394.83059692382812
-138.94900512695312 -118.11354064941406 -82.223960876464844 -82.223960876464844 -69.231346130371094 -111.10089874267578 -141.35578918457031 -161.41612243652344 -175.15916442871094 -175.15916442871094 -184.48199462890625 -190.25930786132813 -192.83732604980469 -192.17842102050781 -187.8438720703125 -187.8438720703125 -178.83047485351562 -163.13096618652344 -136.54934692382812 -89.978790283203125 -121.03089904785156 -121.03089904785156 -159.81938171386719 -187.21717834472656 -207.84945678710937 -224.08552551269531 -237.27822875976562 -237.27822875976562 -248.25210571289062 -257.53729248046875 -265.48995971679687 -272.35891723632812 -278.32470703125 -278.32470703125 -283.52291870117187 -288.05889892578125 -292.01690673828125 -295.46633911132812 -298.46566772460937 -298.46566772460937 -301.0654296875 -303.31002807617187 -305.2392578125 -306.8892822265625 -308.29324340820312 -308.29324340820312 -309.4818115234375 -310.48330688476562 -311.32388305664062 -312.02725219726562 -312.02725219726562 -312.614501953125 -313.10382080078125 -313.50994873046875 -313.84390258789062 -314.11257934570312 -314.11257934570312 -314.31857299804687 -314.46026611328125 -314.53225708007812 -314.5257568359375 -314.42959594726562 -314.42959594726562 -314.23092651367187 -313.91574096679687 -313.46942138671875 -312.87814331054687 -312.13442993164062 -312.13442993164062 -311.25390625 -310.31182861328125 -309.49200439453125 -309.08578491210937 -309.34317016601562 -309.34317016601562 -310.24774169921875 -311.49319458007812 -312.68661499023437 -313.49893188476562 -313.63723754882812 -313.63723754882812 -312.71450805664062 -310.17926025390625 -306.06954956054687 -303.8656005859375 -307.2916259765625 -307.2916259765625 -312.03256225585938 -314.83963012695312 -315.89810180664062 -315.9169921875 -315.16693115234375 -315.16693115234375 -313.42544555664062 -310.85882568359375 -309.25949096679687 -310.68618774414062 -313.95379638671875 -313.95379638671875 -316.63702392578125 -317.9146728515625 -317.8984375 -316.8040771484375 -314.75436401367187 -314.75436401367187 -311.766845703125 -307.74148559570312 -302.39935302734375 -295.11569213867187 -284.42147827148437 -284.42147827148437 -265.93453979492187 -218.21353149414062 -219.94583129882812 -271.44073486328125 -278.67330932617187 -278.67330932617187 -272.1131591796875 -251.74671936035156 -231.64044189453125 -213.11163330078125 -263.968994140625 -263.968994140625 -326.15310668945312 -385.06927490234375 -453.0621337890625 -529.26092529296875 -529.26092529296875 -539.61737060546875 -499.1639404296875 -483.04483032226562 -470.65377807617187 -457.2989501953125 -457.2989501953125 -441.42965698242187 -422.92984008789062 -403.31771850585937 -381.3243408203125 -365.95404052734375 -365.95404052734375 -361.73822021484375 -365.11026000976563 -367.35128784179687 -364.691650390625 -365.731201171875 -365.731201171875 -371.31765747070312 -379.40106201171875 -387.29302978515625 -394.90570068359375 -401.90228271484375 -401.90228271484375
-136.06559753417969 -114.08090972900391 -77.622711181640625 -77.622711181640625 -81.784248352050781 -118.13699340820312 -144.70112609863281 -163.36570739746094 -176.39445495605469 -176.39445495605469 -185.24397277832031 -190.65922546386719 -192.92733764648437 -191.97183227539062 -187.32186889648437 -187.32186889648437 -177.95091247558594 -161.86686706542969 -134.98466491699219 -86.530342102050781 -127.31318664550781 -127.31318664550781 -165.3653564453125 -191.3763427734375 -211.02655029296875 -226.61172485351562 -239.35910034179687 -239.35910034179687 -250.0106201171875 -259.04754638671875 -266.79776000976562 -273.4937744140625 -279.30624389648437 -279.30624389648437 -284.36465454101562 -288.77032470703125 -292.60479736328125 -295.93545532226562 -298.8194580078125 -298.8194580078125 -301.30633544921875 -303.43984985351562 -305.25946044921875 -306.80130004882812 -308.09872436523437 -308.09872436523437 -309.18283081054687 -310.08258056640625 -310.82489013671875 -311.43441772460937 -311.43441772460937 -311.93319702148437 -312.34024047851562 -312.6710205078125 -312.93685913085937 -313.1446533203125 -313.1446533203125 -313.29656982421875 -313.39016723632812 -313.41891479492187 -313.37338256835937 -313.24258422851562 -313.24258422851562 -313.0159912109375 -312.68524169921875 -312.246337890625 -311.70208740234375 -311.06744384765625 -311.06744384765625 -310.38076782226562 -309.72216796875 -309.2286376953125 -309.072998046875 -309.3785400390625 -309.3785400390625 -310.11578369140625 -311.08892822265625 -312.01968383789062 -312.611328125 -312.49639892578125 -312.49639892578125 -311.00582885742187 -306.65255737304687 -297.23870849609375 -289.84005737304687 -299.49832153320312 -299.49832153320312 -309.84323120117187 -314.66360473632812 -316.37103271484375 -316.93740844726562 -317.2750244140625 -317.2750244140625 -317.14083862304688 -316.455322265625 -316.117431640625 -316.9814453125 -318.62954711914062 -318.62954711914062 -320.01055908203125 -320.54904174804687 -320.1478271484375 -318.85809326171875 -316.72003173828125 -316.72003173828125 -313.709716796875 -309.69485473632812 -304.341552734375 -296.8843994140625 -285.43557739257812 -285.43557739257812 -263.9432373046875 -178.10989379882812 -243.00959777832031 -278.70785522460937 -286.10980224609375 -286.10980224609375 -281.87936401367187 -267.19622802734375 -173.57156372070312 -231.61636352539062 -249.9737548828125 -249.9737548828125 -314.48126220703125 -376.74551391601562 -442.00387573242187 -511.60671997070312 -511.60671997070312 -532.468017578125 -525.07196044921875 -506.39361572265625 -492.39462280273437 -478.32638549804687 -478.32638549804687 -462.93759155273437 -446.6715087890625 -430.50341796875 -415.39654541015625 -403.94427490234375 -403.94427490234375 -397.19961547851562 -393.93472290039062 -391.64401245117187 -389.1824951171875 -388.64324951171875 -388.64324951171875 -390.83621215820312 -394.99148559570312 -399.90634155273438 -405.01077270507812 -409.85113525390625 -409.85113525390625
-129.51936340332031 -103.442138671875 -56.485603332519531 -56.485603332519531 -94.924705505371094 -128.03756713867187 -150.64532470703125 -166.98286437988281 -178.65423583984375 -178.65423583984375 -186.58612060546875 -191.28761291503906 -192.926025390625 -191.33303833007812 -185.91499328613281 -185.91499328613281 -175.40849304199219 -157.28950500488281 -125.27703094482422 -88.912490844726562 -144.1917724609375 -144.1917724609375 -176.11920166015625 -199.11470031738281 -216.93666076660156 -231.33427429199219 -243.26487731933594 -243.26487731933594 -253.31927490234375 -261.8922119140625 -269.26132202148437 -275.62930297851562 -281.148681640625 -281.148681640625 -285.93746948242187 -290.08935546875 -293.68069458007812 -296.77511596679687 -299.42718505859375 -299.42718505859375 -301.6845703125 -303.58990478515625 -305.18212890625 -306.49737548828125 -307.56964111328125 -307.56964111328125 -308.43115234375 -309.11257934570312 -309.64285278320313 -310.04901123046875 -310.04901123046875 -310.35556030273437 -310.58380126953125 -310.75103759765625 -310.86965942382812 -310.9462890625 -310.9462890625 -310.98141479492187 -310.96926879882812 -310.89871215820312 -310.75503540039062 -310.5230712890625 -310.5230712890625 -310.19113159179687 -309.75564575195312 -309.22512817382812 -308.62307739257812 -307.98980712890625 -307.98980712890625 -307.3846435546875 -306.88821411132812 -306.59912109375 -306.6138916015625 -306.98458862304688 -306.98458862304688 -307.67251586914062 -308.5338134765625 -309.346435546875 -309.82940673828125 -309.54135131835937 -309.54135131835937 -307.37686157226563 -299.24313354492188 -262.17733764648437 -136.53456115722656 -268.18118286132812 -268.18118286132812 -304.9805908203125 -313.29443359375 -312.45623779296875 -311.34591674804688 -316.18447875976562 -316.18447875976562 -321.3387451171875 -323.14556884765625 -323.91064453125 -324.46853637695312 -324.91452026367188 -324.91452026367188 -325.04742431640625 -324.65597534179687 -323.61929321289062 -321.87942504882812 -319.38980102539062 -319.38980102539062 -316.06582641601562 -311.70846557617187 -305.82583618164062 -297.16635131835937 -282.123291015625 -282.123291015625 -245.46124267578125 -180.65521240234375 -269.75225830078125 -292.44882202148437 -297.3221435546875 -297.3221435546875 -291.44094848632812 -269.44488525390625 -178.26651000976562 -265.493896484375 -202.50617980957031 -202.50617980957031 -274.0010986328125 -353.9090576171875 -417.83395385742187 -478.35690307617187 -478.35690307617187 -522.38641357421875 -559.0830078125 -570.7332763671875 -535.50537109375 -518.763427734375 -518.763427734375 -501.53787231445312 -485.57046508789062 -471.06088256835937 -458.29776000976562 -447.6334228515625 -447.6334228515625 -439.18051147460937 -432.67327880859375 -427.67129516601562 -423.95458984375 -421.66851806640625 -421.66851806640625 -420.9105224609375 -421.47305297851562 -422.95660400390625 -424.95980834960937 -427.13238525390625 -427.13238525390625
-126.01753997802734 -97.508949279785156 -55.541770935058594 -55.541770935058594 -100.87283325195312 -131.40090942382812 -152.95272827148437 -168.51606750488281 -179.62954711914062 -179.62954711914062 -187.14137268066406 -191.49551391601562 -192.81184387207031 -190.873046875 -184.99325561523437 -184.99325561523437 -173.66001892089844 -153.71757507324219 -117.65965270996094 -104.07012939453125 -150.94424438476562 -150.94424438476562 -180.75303649902344 -202.515625 -219.58929443359375 -233.49311828613281 -245.07376098632812 -245.07376098632812 -254.86428833007812 -263.22677612304687 -270.41952514648437 -276.63330078125 -282.0130615234375 -282.0130615234375 -286.67184448242187 -290.699951171875 -294.17129516601562 -297.14785766601562 -299.68289184570312 -299.68289184570312 -301.82315063476562 -303.61077880859375 -305.08447265625 -306.28042602539062 -307.2330322265625 -307.2330322265625 -307.97525024414062 -308.53875732421875 -308.95379638671875 -309.24893188476562 -309.24893188476562 -309.45025634765625 -309.58065795898437 -309.65869140625 -309.69744873046875 -309.70346069335937 -309.70346069335937 -309.67599487304687 -309.60659790039062 -309.48016357421875 -309.27694702148437 -308.97637939453125 -308.97637939453125 -308.56268310546875 -308.031005859375 -307.39291381835937 -306.67935180664062 -305.94009399414062 -305.94009399414062 -305.24264526367187 -304.6724853515625 -304.33197021484375 -304.32522583007812 -304.71551513671875 -304.71551513671875 -305.46722412109375 -306.41970825195312 -307.3240966796875 -307.89312744140625 -307.72650146484375 -307.72650146484375 -305.82254028320312 -298.35198974609375 -264.1923828125 -156.89300537109375 -270.40753173828125 -270.40753173828125 -305.26385498046875 -312.82772827148437 -299.79788208007812 -291.28286743164062 -306.85498046875 -306.85498046875 -322.42752075195312 -325.28009033203125 -326.32473754882812 -326.83950805664062 -327.03512573242187 -327.03512573242187 -326.84182739257812 -326.1328125 -324.80572509765625 -322.78546142578125 -319.99777221679687 -319.99777221679687 -316.3306884765625 -311.55157470703125 -305.07000732421875 -295.26974487304687 -277.14248657226563 -277.14248657226563 -226.60263061523437 -223.99441528320312 -281.21694946289062 -298.23703002929687 -300.957275390625 -300.957275390625 -290.56805419921875 -241.91143798828125 -259.799560546875 -268.00222778320312 -209.11024475097656 -209.11024475097656 -242.93142700195312 -339.52291870117187 -405.27749633789062 -462.80197143554687 -462.80197143554687 -513.19903564453125 -543.90087890625 -598.55560302734375 -572.65887451171875 -536.46124267578125 -536.46124267578125 -518.64825439453125 -502.06588745117187 -487.44781494140625 -474.73516845703125 -463.94674682617187 -463.94674682617187 -455.06732177734375 -447.936767578125 -442.3192138671875 -438.06634521484375 -435.16860961914062 -435.16860961914062 -433.60125732421875 -433.19744873046875 -433.67453002929687 -434.72222900390625 -436.055908203125 -436.055908203125
-119.68019866943359 -87.755424499511719 -61.273422241210938 -61.273422241210938 -106.54879760742187 -136.16737365722656 -156.53280639648437 -171.01850891113281 -181.22712707519531 -181.22712707519531 -187.97865295410156 -191.65458679199219 -192.30763244628906 -189.64027404785156 -182.81117248535156 -182.81117248535156 -169.79374694824219 -145.15394592285156 -93.766448974609375 -121.21053314208984 -161.05732727050781 -161.05732727050781 -187.93063354492187 -208.13150024414062 -224.19117736816406 -237.36686706542969 -248.39094543457031 -248.39094543457031 -257.7357177734375 -265.7264404296875 -272.59735107421875 -278.5230712890625 -283.6373291015625 -283.6373291015625 -288.04519653320312 -291.83123779296875 -295.06509399414062 -297.80545043945313 -300.10311889648437 -300.10311889648437 -302.00320434570312 -303.546630859375 -304.77166748046875 -305.71466064453125 -306.41094970703125 -306.41094970703125 -306.89517211914062 -307.20144653320312 -307.36328125 -307.41305541992187 -307.41305541992187 -307.38113403320312 -307.29464721679687 -307.17584228515625 -307.0401611328125 -306.89437866210937 -306.89437866210937 -306.73446655273438 -306.54470825195312 -306.29757690429687 -305.95611572265625 -305.47940063476562 -305.47940063476562 -304.8319091796875 -303.99630737304687 -302.98513793945312 -301.84555053710938 -300.65127563476562 -300.65127563476562 -299.48895263671875 -298.45693969726562 -297.69122314453125 -297.39007568359375 -297.75872802734375 -297.75872802734375 -298.82720947265625 -300.30209350585937 -301.69442749023437 -302.61190795898438 -302.88134765625 -302.88134765625 -302.3199462890625 -300.0889892578125 -294.59027099609375 -291.00927734375 -300.33343505859375 -300.33343505859375 -310.48239135742187 -315.23947143554687 -312.5513916015625 -310.74545288085937 -318.07296752929687 -318.07296752929687 -325.802734375 -328.51519775390625 -329.6497802734375 -330.05380249023437 -329.92257690429688 -329.92257690429688 -329.25921630859375 -327.9959716796875 -326.03485107421875 -323.2513427734375 -319.47860717773437 -319.47860717773437 -314.4825439453125 -307.90298461914062 -298.88839721679687 -284.30404663085937 -252.00057983398437 -252.00057983398437 -131.8336181640625 -268.96343994140625 -297.5357666015625 -307.01785278320312 -305.541748046875 -305.541748046875 -280.25250244140625 -235.54345703125 -291.017333984375 -258.65933227539062 -289.965087890625 -289.965087890625 -269.74703979492187 -255.31959533691406 -367.06912231445312 -441.05093383789062 -441.05093383789062 -500.49395751953125 -536.3311767578125 -562.55426025390625 -619.258544921875 -574.43548583984375 -574.43548583984375 -545.9178466796875 -529.9962158203125 -515.1475830078125 -502.2169189453125 -491.06549072265625 -491.06549072265625 -481.61245727539062 -473.7623291015625 -467.39520263671875 -462.39532470703125 -458.66140747070312 -458.66140747070312 -456.08160400390625 -454.50521850585937 -453.74179077148437 -453.58355712890625 -453.83175659179687 -453.83175659179687
-116.76750946044922 -85.330696105957031 -68.633438110351563 -68.633438110351563 -109.75565338134766 -138.20474243164062 -158.01124572753906 -172.04391479492187 -181.85667419433594 -181.85667419433594 -188.2528076171875 -191.59083557128906 -191.89631652832031 -188.84510803222656 -181.57838439941406 -181.57838439941406 -168.0799560546875 -142.92764282226562 -88.969085693359375 -126.26186370849609 -164.19845581054687 -164.19845581054687 -190.49844360351562 -210.37322998046875 -226.16029357910156 -239.09518432617187 -249.90847778320312 -249.90847778320312 -259.06912231445312 -266.89724731445312 -273.62200927734375 -279.41336059570312 -284.40133666992187 -284.40133666992187 -288.68798828125 -292.35546875 -295.47146606445312 -298.09320068359375 -300.270263671875 -300.270263671875 -302.04678344726562 -303.463134765625 -304.5572509765625 -305.36557006835937 -305.92391967773438 -305.92391967773438 -306.26785278320312 -306.43295288085937 -306.45468139648438 -306.36782836914062 -306.36782836914062 -306.20553588867187 -305.99777221679687 -305.76947021484375 -305.53802490234375 -305.31069946289062 -305.31069946289062 -305.0819091796875 -304.83111572265625 -304.52203369140625 -304.10443115234375 -303.5201416015625 -303.5201416015625 -302.71493530273437 -301.65689086914062 -300.355712890625 -298.87103271484375 -297.29754638671875 -297.29754638671875 -295.733642578125 -294.27288818359375 -293.06015014648437 -292.38601684570312 -292.65573120117187 -292.65573120117187 -294.03793334960937 -296.07827758789062 -297.94467163085937 -299.06167602539062 -299.40695190429687 -299.40695190429687 -299.3505859375 -299.13699340820312 -298.821533203125 -300.34527587890625 -305.98297119140625 -305.98297119140625 -312.4976806640625 -316.89974975585937 -318.68576049804687 -320.28775024414062 -323.93499755859375 -323.93499755859375 -327.65487670898437 -329.76718139648437 -330.79522705078125 -331.1131591796875 -330.83734130859375 -330.83734130859375 -329.960693359375 -328.411865234375 -326.0728759765625 -322.767822265625 -318.22750854492187 -318.22750854492187 -312.03741455078125 -303.5897216796875 -291.75717163085937 -271.2862548828125 -213.78169250488281 -213.78169250488281 -227.53599548339844 -283.8382568359375 -303.04098510742187 -309.7491455078125 -307.29891967773438 -307.29891967773438 -282.64813232421875 -235.62037658691406 -297.93399047851562 -279.19302368164062 -286.6580810546875 -286.6580810546875 -307.95022583007812 -203.62797546386719 -329.41311645507812 -430.6602783203125 -430.6602783203125 -490.06463623046875 -529.7357177734375 -557.13079833984375 -605.6339111328125 -616.34466552734375 -616.34466552734375 -533.35693359375 -541.26251220703125 -526.9434814453125 -513.94757080078125 -502.61904907226562 -502.61904907226562 -492.95455932617187 -484.87741088867187 -478.27935791015625 -473.04263305664062 -469.04864501953125 -469.04864501953125 -466.1690673828125 -464.25347900390625 -463.1290283203125 -462.61279296875 -462.52926635742187 -462.52926635742187
-113.51335144042969 -79.151695251464844 -70.093452453613281 -70.093452453613281 -112.70278167724609 -140.17013549804687 -159.37103271484375 -172.95222473144531 -182.38104248046875 -182.38104248046875 -188.42768859863281 -191.42254638671875 -191.36143493652344 -187.89523315429687 -180.17680358886719 -180.17680358886719 -166.3853759765625 -142.23588562011719 -91.933433532714844 -127.29386901855469 -166.07957458496094 -166.07957458496094 -192.50982666015625 -212.32066345214844 -227.9534912109375 -240.70866394042969 -251.34553527832031 -251.34553527832031 -260.34255981445312 -268.02102661132812 -274.60806274414062 -280.270751953125 -285.13632202148437 -285.13632202148437 -289.30429077148437 -292.8546142578125 -295.85324096679688 -298.3558349609375 -300.41070556640625 -300.41070556640625 -302.06112670898437 -303.3466796875 -304.30499267578125 -304.97250366210937 -305.38543701171875 -305.38543701171875 -305.58041381835937 -305.59457397460937 -305.46554565429687 -305.23089599609375 -305.23089599609375 -304.92709350585937 -304.58761596679687 -304.24078369140625 -303.90667724609375 -303.59378051757813 -303.59378051757813 -303.2950439453125 -302.984619140625 -302.6156005859375 -302.1204833984375 -301.4169921875 -301.4169921875 -300.42254638671875 -299.08047485351562 -297.39279174804687 -295.43875122070313 -293.34945678710937 -293.34945678710937 -291.24050903320312 -289.17449951171875 -287.2596435546875 -285.89602661132812 -285.8863525390625 -285.8863525390625 -287.78213500976563 -290.8287353515625 -293.46859741210937 -294.75234985351562 -294.82803344726562 -294.82803344726562 -294.78143310546875 -295.87542724609375 -298.43325805664062 -302.43161010742187 -307.841552734375 -307.841552734375 -313.42117309570312 -317.886474609375 -321.01254272460937 -323.63180541992187 -326.46185302734375 -326.46185302734375 -329.02938842773437 -330.7578125 -331.66799926757812 -331.88699340820312 -331.46142578125 -331.46142578125 -330.363037109375 -328.50384521484375 -325.73101806640625 -321.79095458984375 -316.24362182617187 -316.24362182617187 -308.29400634765625 -296.552490234375 -278.76510620117187 -242.54484558105469 -165.21293640136719 -165.21293640136719 -264.54769897460937 -294.03750610351562 -306.3934326171875 -310.85052490234375 -308.03012084960937 -308.03012084960937 -289.80029296875 -220.30343627929687 -301.61654663085937 -290.75433349609375 -285.07412719726562 -285.07412719726562 -314.13577270507812 -288.53445434570312 -294.60784912109375 -423.627197265625 -423.627197265625 -484.93826293945312 -527.03863525390625 -563.14251708984375 -596.4935302734375 -606.4581298828125 -606.4581298828125 -562.31182861328125 -550.55316162109375 -537.59991455078125 -524.59478759765625 -513.10174560546875 -513.10174560546875 -503.25997924804688 -495.01150512695312 -488.249755859375 -482.850341796875 -478.68142700195313 -478.68142700195313 -475.60333251953125 -473.46417236328125 -472.10037231445312 -471.34365844726562 -471.0325927734375 -471.0325927734375
-109.64717102050781 -70.297813415527344 -82.328941345214844 -82.328941345214844 -118.29367065429687 -143.81381225585937 -161.785888671875 -174.45083618164062 -183.12045288085937 -183.12045288085937 -188.4708251953125 -190.75123596191406 -189.871337890625 -185.385986328125 -176.37663269042969 -176.37663269042969 -161.16854858398437 -136.30799865722656 -90.213676452636719 -125.78791809082031 -168.25125122070312 -168.25125122070312 -195.82073974609375 -215.77236938476562 -231.22250366210937 -243.69694519042969 -254.03486633300781 -254.03486633300781 -262.74240112304688 -270.1483154296875 -276.4791259765625 -281.89840698242187 -286.52902221679687 -286.52902221679687 -290.46624755859375 -293.78607177734375 -296.55093383789062 -298.8133544921875 -300.61898803710938 -300.61898803710938 -302.00881958007812 -303.020751953125 -303.69125366210937 -304.05645751953125 -304.15335083007812 -304.15335083007812 -304.02044677734375 -303.6983642578125 -303.22982788085937 -302.65927124023437 -302.65927124023437 -302.03143310546875 -301.38934326171875 -300.77114868164062 -300.20571899414062 -299.70703125 -299.70703125 -299.26748657226562 -298.850341796875 -298.382080078125 -297.74661254882812 -296.78436279296875 -296.78436279296875 -295.30633544921875 -293.14065551757813 -290.22836303710937 -286.72750854492188 -282.97686767578125 -282.97686767578125 -279.22064208984375 -275.28179931640625 -270.6573486328125 -265.51351928710937 -262.664306640625 -262.664306640625 -267.04898071289062 -275.91397094726562 -282.24349975585937 -283.56838989257812 -280.46823120117187 -280.46823120117187 -276.4654541015625 -279.02557373046875 -288.0863037109375 -297.65655517578125 -305.81088256835937 -305.81088256835937 -312.50872802734375 -317.89419555664062 -322.16537475585937 -325.58920288085937 -328.36322021484375 -328.36322021484375 -330.50924682617188 -331.96719360351562 -332.70504760742187 -332.711181640625 -331.95413208007812 -331.95413208007812 -330.35726928710937 -327.77548217773437 -323.948486328125 -318.38449096679688 -310.03857421875 -310.03857421875 -296.2783203125 -268.22189331054687 -180.03451538085937 -241.84652709960937 -277.78182983398438 -277.78182983398438 -291.48770141601562 -299.60275268554687 -303.82717895507812 -304.17489624023437 -298.50726318359375 -298.50726318359375 -271.67343139648437 -231.22445678710937 -306.14410400390625 -294.92034912109375 -285.8570556640625 -285.8570556640625 -280.35272216796875 -235.06454467773437 -331.43753051757813 -420.46209716796875 -420.46209716796875 -481.86932373046875 -525.19830322265625 -563.546875 -587.7325439453125 -617.103515625 -617.103515625 -614.99163818359375 -532.55194091796875 -555.03851318359375 -542.87158203125 -531.2412109375 -531.2412109375 -521.1768798828125 -512.731689453125 -505.810302734375 -500.27206420898437 -495.96240234375 -495.96240234375 -492.72341918945312 -490.3974609375 -488.82757568359375 -487.8572998046875 -487.33474731445312 -487.33474731445312
-109.85276031494141 -69.436439514160156 -83.413192749023438 -83.413192749023438 -120.46482086181641 -145.41889953613281 -162.820068359375 -175.03178405761719 -183.32884216308594 -183.32884216308594 -188.33380126953125 -190.24314880371094 -188.90528869628906 -183.78587341308594 -173.81338500976562 -173.81338500976562 -157.07621765136719 -130.06204223632812 -83.138404846191406 -128.51759338378906 -170.26554870605469 -170.26554870605469 -197.69747924804687 -217.50758361816406 -232.80421447753906 -245.12507629394531 -255.31607055664062 -255.31607055664062 -263.88580322265625 -271.1627197265625 -277.37185668945312 -282.67471313476562 -287.19192504882812 -287.19192504882812 -291.01666259765625 -294.22293090820312 -296.87127685546875 -299.01263427734375 -300.69113159179687 -300.69113159179687 -301.9462890625 -302.81500244140625 -303.33282470703125 -303.53555297851562 -303.46023559570312 -303.46023559570312 -303.14630126953125 -302.63616943359375 -301.97537231445312 -301.21243286132813 -301.21243286132813 -300.39730834960937 -299.57931518554687 -298.80343627929687 -298.105224609375 -297.50405883789062 -297.50405883789062 -296.99423217773438 -296.53469848632812 -296.037109375 -295.353759765625 -294.26779174804687 -294.26779174804687 -292.49676513671875 -289.7421875 -285.84381103515625 -281.02175903320312 -275.89328002929687 -275.89328002929687 -270.94796752929687 -265.7730712890625 -258.8052978515625 -248.95112609863281 -239.89260864257812 -239.89260864257812 -247.66055297851562 -265.30935668945312 -275.78204345703125 -276.84820556640625 -269.30917358398437 -269.30917358398437 -256.49710083007812 -260.15963745117187 -278.02047729492187 -292.59170532226562 -303.14834594726562 -303.14834594726562 -311.06005859375 -317.15771484375 -321.921875 -325.67196655273437 -328.6036376953125 -328.6036376953125 -330.7901611328125 -332.23263549804687 -332.91424560546875 -332.809326171875 -331.86611938476562 -331.86611938476562 -329.98440551757812 -326.98312377929687 -322.53369140625 -315.99371337890625 -305.903076171875 -305.903076171875 -288.10546875 -245.59317016601562 -193.27354431152344 -266.099365234375 -284.03958129882813 -284.03958129882813 -290.39712524414062 -293.87185668945312 -294.93011474609375 -291.59259033203125 -279.997802734375 -279.997802734375 -221.44044494628906 -280.53091430664062 -305.33511352539062 -273.572509765625 -299.7451171875 -299.7451171875 -218.29539489746094 -325.16342163085937 -295.54315185546875 -412.75222778320312 -412.75222778320312 -480.0125732421875 -525.97821044921875 -560.0682373046875 -587.81268310546875 -620.6812744140625 -620.6812744140625 -630.26373291015625 -576.52069091796875 -559.9356689453125 -550.37255859375 -538.9813232421875 -538.9813232421875 -528.92047119140625 -520.45721435546875 -513.53387451171875 -508.00714111328125 -503.71310424804687 -503.71310424804687 -500.48593139648437 -498.164794921875 -496.5943603515625 -495.62002563476562 -495.0880126953125 -495.0880126953125
-110.95340728759766 -70.249221801757813 -85.1522216796875 -85.1522216796875 -122.34906768798828 -146.85893249511719 -163.70915222167969 -175.48114013671875 -183.41961669921875 -183.41961669921875 -188.08743286132812 -189.62165832519531 -187.79931640625 -181.97210693359375 -170.83427429199219 -170.83427429199219 -151.92529296875 -121.63104248046875 -77.70526123046875 -135.09187316894531 -173.518310546875 -173.518310546875 -199.95164489746094 -219.35121154785156 -234.40226745605469 -246.53727722167969 -256.5712890625 -256.5712890625 -265.00155639648438 -272.15103149414062 -278.240966796875 -283.42996215820313 -287.83602905273437 -287.83602905273437 -291.54998779296875 -294.64376831054687 -297.17596435546875 -299.19564819335938 -300.74526977539063 -300.74526977539063 -301.86285400390625 -302.58389282226562 -302.94287109375 -302.97491455078125 -302.7169189453125 -302.7169189453125 -302.20907592773437 -301.49545288085938 -300.62472534179687 -299.6497802734375 -299.6497802734375 -298.62664794921875 -297.61199951171875 -296.65933227539062 -295.81298828125 -295.10012817382812 -295.10012817382812 -294.51968383789062 -294.02822875976562 -293.52310180664062 -292.82147216796875 -291.63555908203125 -291.63555908203125 -289.5506591796875 -286.05081176757812 -280.73654174804687 -273.869873046875 -266.63333129882812 -266.63333129882812 -260.11865234375 -253.77082824707031 -243.61244201660156 -225.61662292480469 -196.04032897949219 -196.04032897949219 -213.18408203125 -252.36276245117187 -269.42904663085937 -269.92562866210937 -255.05021667480469 -255.05021667480469 -212.3038330078125 -223.78861999511719 -264.68597412109375 -286.43081665039063 -299.86602783203125 -299.86602783203125 -309.1837158203125 -316.07711791992187 -321.35244750976562 -325.43887329101562 -328.56842041015625 -328.56842041015625 -330.84774780273437 -332.30850219726562 -332.94454956054687 -332.72344970703125 -331.57791137695312 -331.57791137695312 -329.38412475585937 -325.92083740234375 -320.78262329101563 -313.16363525390625 -301.15505981445312 -301.15505981445312 -278.6531982421875 -213.65104675292969 -230.50251770019531 -273.15081787109375 -280.716064453125 -280.716064453125 -279.47515869140625 -278.2359619140625 -274.41171264648437 -260.11383056640625 -220.54350280761719 -220.54350280761719 -251.57502746582031 -293.39077758789063 -283.49282836914063 -226.54383850097656 -313.52401733398437 -313.52401733398437 -291.13949584960937 -349.88980102539062 -258.71646118164062 -397.88232421875 -397.88232421875 -477.19497680664062 -525.19537353515625 -563.21978759765625 -597.02960205078125 -613.46929931640625 -613.46929931640625 -669.5565185546875 -598.05322265625 -559.50030517578125 -556.405029296875 -545.833740234375 -545.833740234375 -535.90997314453125 -527.494873046875 -520.62158203125 -515.1541748046875 -510.92251586914063 -510.92251586914063 -507.75390625 -505.48471069335938 -503.9630126953125 -503.03628540039062 -502.544921875 -502.544921875
-116.28952026367187 -78.382942199707031 -88.751823425292969 -88.751823425292969 -126.03987121582031 -149.1263427734375 -164.88792419433594 -175.89044189453125 -183.20646667480469 -183.20646667480469 -187.25819396972656 -188.05860900878906 -185.23207092285156 -177.87980651855469 -164.22390747070312 -164.22390747070312 -140.57046508789063 -97.054420471191406 -109.75147247314453 -151.02055358886719 -181.94114685058594 -181.94114685058594 -205.32954406738281 -223.37242126464844 -237.69325256347656 -249.35432434082031 -259.0335693359375 -259.0335693359375 -267.17184448242187 -274.06552124023437 -279.92129516601562 -284.888427734375 -289.07809448242187 -289.07809448242187 -292.57550048828125 -295.44775390625 -297.7490234375 -299.524169921875 -300.81167602539062 -300.81167602539062 -301.645751953125 -302.05816650390625 -302.080322265625 -301.7447509765625 -301.087158203125 -301.087158203125 -300.1480712890625 -298.97451782226562 -297.62127685546875 -296.15130615234375 -296.15130615234375 -294.63494873046875 -293.1475830078125 -291.76522827148437 -290.55789184570312 -289.57864379882812 -289.57864379882812 -288.84780883789062 -288.329833984375 -287.90243530273437 -287.3135986328125 -286.10897827148437 -286.10897827148437 -283.48733520507812 -278.02291870117187 -267.49468994140625 -250.98788452148437 -233.55630493164062 -233.55630493164062 -219.62179565429687 -216.10455322265625 -198.19808959960937 -120.63408660888672 -166.96844482421875 -166.96844482421875 -109.87000274658203 -231.82229614257812 -261.34490966796875 -258.9940185546875 -228.91787719726562 -228.91787719726562 -127.65950775146484 -151.99728393554687 -238.69026184082031 -273.57928466796875 -292.61306762695312 -292.61306762695312 -304.71484375 -313.21173095703125 -319.52508544921875 -324.31558227539062 -327.9034423828125 -327.9034423828125 -330.44024658203125 -331.98516845703125 -332.54010009765625 -332.06149291992187 -330.45419311523438 -330.45419311523438 -327.54437255859375 -323.01504516601562 -316.26046752929687 -306.03958129882812 -289.4893798828125 -289.4893798828125 -256.22244262695312 -171.0255126953125 -257.22891235351563 -259.25787353515625 -221.61380004882812 -221.61380004882812 -205.30812072753906 -239.59768676757812 -250.65521240234375 -255.80949401855469 -252.65812683105469 -252.65812683105469 -214.51127624511719 -234.05029296875 -297.21322631835937 -310.50100708007812 -235.57513427734375 -235.57513427734375 -342.52078247070312 -341.1177978515625 -273.1435546875 -316.23297119140625 -316.23297119140625 -474.508544921875 -524.98004150390625 -549.25799560546875 -592.76251220703125 -621.91510009765625 -621.91510009765625 -621.3531494140625 -640.8563232421875 -582.2484130859375 -559.44659423828125 -556.837158203125 -556.837158203125 -547.7342529296875 -539.6585693359375 -533.04541015625 -527.82049560546875 -523.81976318359375 -523.81976318359375 -520.8623046875 -518.77899169921875 -517.4346923828125 -516.69879150390625 -516.39227294921875 -516.39227294921875
-119.38925933837891 -79.172187805175781 -90.301490783691406 -90.301490783691406 -127.39769744873047 -149.690185546875 -165.05311584472656 -175.7958984375 -182.88215637207031 -182.88215637207031 -186.67324829101562 -187.12974548339844 -183.80581665039062 -175.67839050292969 -160.77511596679687 -160.77511596679687 -135.65611267089844 -93.045753479003906 -117.80082702636719 -157.33920288085937 -186.11123657226562 -186.11123657226562 -208.16787719726562 -225.4766845703125 -239.37318420410156 -250.76239013671875 -260.247314453125 -260.247314453125 -268.23300170898437 -274.99765014648437 -280.73788452148437 -285.59674072265625 -289.68109130859375 -289.68109130859375 -293.0728759765625 -295.83642578125 -298.02334594726562 -299.6761474609375 -300.8309326171875 -300.8309326171875 -301.51947021484375 -301.77130126953125 -301.61544799804687 -301.08251953125 -300.20672607421875 -300.20672607421875 -299.02801513671875 -297.59432983398438 -295.96322631835937 -294.203125 -294.203125 -292.39254760742187 -290.61822509765625 -288.970703125 -287.53726196289062 -286.39096069335938 -286.39096069335938 -285.57174682617187 -285.0582275390625 -284.72802734375 -284.30343627929687 -283.25482177734375 -283.25482177734375 -280.56915283203125 -274.11221313476562 -259.06503295898438 -229.59719848632812 -196.74365234375 -196.74365234375 -170.68199157714844 -184.47929382324219 -155.13702392578125 -154.57757568359375 -159.23878479003906 -159.23878479003906 -172.7344970703125 -238.62022399902344 -261.34567260742187 -256.58853149414062 -222.87657165527344 -222.87657165527344 -111.94020843505859 -148.21975708007812 -228.85580444335937 -267.96453857421875 -289.08749389648437 -289.08749389648437 -302.31829833984375 -311.52996826171875 -318.34579467773437 -323.49969482421875 -327.33859252929687 -327.33859252929687 -330.02536010742187 -331.62432861328125 -332.13671875 -331.51187133789062 -329.63998413085937 -329.63998413085937 -326.3201904296875 -321.17886352539062 -313.46939086914063 -301.54827880859375 -281.38558959960937 -281.38558959960937 -241.38981628417969 -198.74400329589844 -254.18997192382812 -222.55268859863281 -228.38340759277344 -228.38340759277344 -247.61491394042969 -227.49989318847656 -197.74705505371094 -208.33755493164062 -259.28347778320312 -259.28347778320312 -275.60385131835938 -286.70849609375 -275.95083618164062 -219.76300048828125 -317.88644409179687 -317.88644409179687 -322.6041259765625 -308.70394897460937 -362.73196411132812 -385.35629272460937 -385.35629272460937 -482.25717163085937 -526.81396484375 -551.98223876953125 -602.85040283203125 -646.77923583984375 -646.77923583984375 -611.926025390625 -649.9876708984375 -598.37005615234375 -559.6710205078125 -560.9625244140625 -560.9625244140625 -552.59478759765625 -544.84124755859375 -538.43975830078125 -533.383056640625 -529.5250244140625 -529.5250244140625 -526.6904296875 -524.70458984375 -523.43292236328125 -522.774658203125 -522.56689453125 -522.56689453125
-121.92379760742187 -86.464790344238281 -91.843406677246094 -91.843406677246094 -127.54657745361328 -149.61155700683594 -164.84996032714844 -175.47181701660156 -182.40394592285156 -182.40394592285156 -185.97555541992187 -186.11015319824219 -182.302978515625 -173.4053955078125 -157.13504028320312 -157.13504028320312 -129.43394470214844 -84.506721496582031 -125.40471649169922 -162.83331298828125 -190.01918029785156 -190.01918029785156 -210.96601867675781 -227.58624267578125 -241.05619812011719 -252.16490173339844 -261.44961547851562 -261.44961547851562 -269.28021240234375 -275.91567993164062 -281.5416259765625 -286.29409790039062 -290.27529907226563 -290.27529907226563 -293.56350708007813 -296.22003173828125 -298.2938232421875 -299.82470703125 -300.84613037109375 -300.84613037109375 -301.38720703125 -301.47467041015625 -301.13473510742187 -300.39532470703125 -299.2884521484375 -299.2884521484375 -297.85275268554687 -296.13626098632812 -294.19906616210937 -292.11489868164062 -292.11489868164062 -289.97125244140625 -287.86749267578125 -285.91055297851562 -284.20858764648437 -282.8599853515625 -282.8599853515625 -281.93307495117187 -281.430908203125 -281.24124145507812 -281.072021484375 -280.3409423828125 -280.3409423828125 -277.88101196289062 -270.91604614257813 -250.59938049316406 -187.2930908203125 -106.74767303466797 -106.74767303466797 -164.2845458984375 -166.80679321289062 -140.12620544433594 -147.03239440917969 -137.07371520996094 -137.07371520996094 -218.56765747070312 -250.88563537597656 -263.52203369140625 -256.54818725585938 -223.37307739257812 -223.37307739257812 -100.10411834716797 -115.79860687255859 -219.63687133789062 -263.20263671875 -285.7574462890625 -285.7574462890625 -299.85641479492187 -309.70025634765625 -317.00741577148437 -322.53756713867187 -326.64413452148437 -326.64413452148437 -329.49349975585937 -331.15176391601563 -331.61752319335937 -330.83151245117187 -328.66799926757812 -328.66799926757812 -324.89813232421875 -319.087646484375 -310.32138061523437 -296.34780883789062 -270.0125732421875 -270.0125732421875 -201.94892883300781 -229.98747253417969 -241.28408813476562 -213.91679382324219 -241.01002502441406 -241.01002502441406 -195.19830322265625 -250.32333374023437 -263.689697265625 -266.953125 -265.93606567382812 -265.93606567382812 -262.92398071289062 -209.90728759765625 -283.75625610351562 -306.9801025390625 -309.5147705078125 -309.5147705078125 -319.698486328125 -369.01174926757812 -257.77606201171875 -435.60345458984375 -435.60345458984375 -492.35140991210937 -529.2999267578125 -546.84112548828125 -591.54754638671875 -634.34375 -634.34375 -611.17816162109375 -621.31500244140625 -613.43426513671875 -537.85980224609375 -563.72271728515625 -563.72271728515625 -556.7078857421875 -549.4404296875 -543.30950927734375 -538.43408203125 -534.70001220703125 -534.70001220703125 -531.9630126953125 -530.0548095703125 -528.77685546875 -528.00872802734375 -527.80670166015625 -527.80670166015625
-123.77713012695312 -87.490180969238281 -78.711074829101563 -78.711074829101563 -122.98529815673828 -147.31556701660156 -163.26701354980469 -174.12135314941406 -180.99479675292969 -180.99479675292969 -184.25515747070312 -183.80641174316406 -179.07737731933594 -168.76040649414062 -149.90986633300781 -149.90986633300781 -115.34990692138672 -93.255271911621094 -139.36466979980469 -172.55897521972656 -197.14247131347656 -197.14247131347656 -216.29457092285156 -231.70834350585937 -244.37309265136719 -254.92835998535156 -263.81207275390625 -263.81207275390625 -271.33309936523437 -277.71377563476563 -283.116943359375 -287.66390991210937 -291.44647216796875 -291.44647216796875 -294.5350341796875 -296.98431396484375 -298.837158203125 -300.12759399414062 -300.88290405273437 -300.88290405273437 -301.12564086914062 -300.87545776367187 -300.15109252929687 -298.97265625 -297.3646240234375 -297.3646240234375 -295.35958862304687 -293.00253295898437 -290.355712890625 -287.5028076171875 -287.5028076171875 -284.55075073242187 -281.62765502929688 -278.87826538085937 -276.45977783203125 -274.53964233398437 -274.53964233398437 -273.27957153320312 -272.78173828125 -272.99810791015625 -273.64144897460938 -274.10263061523438 -274.10263061523438 -273.23867797851562 -268.51754760742187 -252.02958679199219 -198.26606750488281 -164.03593444824219 -164.03593444824219 -197.51312255859375 -211.50233459472656 -209.61257934570312 -221.37333679199219 -240.776611328125 -240.776611328125 -258.03384399414062 -268.470947265625 -270.30667114257812 -261.29119873046875 -236.02471923828125 -236.02471923828125 -178.31097412109375 -111.70025634765625 -212.67817687988281 -255.76832580566406 -279.22470092773437 -279.22470092773437 -294.43179321289062 -305.4227294921875 -313.78961181640625 -320.18136596679687 -324.90676879882813 -324.90676879882813 -328.13055419921875 -329.92416381835937 -330.28009033203125 -329.11611938476562 -326.2674560546875 -326.2674560546875 -321.44564819335938 -314.09817504882812 -302.9481201171875 -284.30279541015625 -241.38308715820313 -241.38308715820313 -213.04461669921875 -253.07420349121094 -196.94816589355469 -224.88674926757812 -251.47358703613281 -251.47358703613281 -257.21536254882812 -225.23503112792969 -265.89028930664062 -251.05361938476562 -260.94833374023437 -260.94833374023437 -276.79238891601562 -282.70272827148437 -255.14146423339844 -294.4241943359375 -318.0738525390625 -318.0738525390625 -319.64157104492188 -375.47323608398437 -433.73626708984375 -476.61447143554687 -476.61447143554687 -509.14523315429687 -535.49346923828125 -547.0023193359375 -591.19940185546875 -625.56304931640625 -625.56304931640625 -615.79296875 -608.47943115234375 -640.4793701171875 -580.78094482421875 -552.280517578125 -552.280517578125 -561.91217041015625 -556.7587890625 -551.38116455078125 -546.8062744140625 -542.80059814453125 -542.80059814453125 -539.48370361328125 -537.87310791015625 -536.63067626953125 -530.03692626953125 -529.65362548828125 -529.65362548828125
-124.15779876708984 -88.954032897949219 -73.980636596679688 -73.980636596679688 -120.14247131347656 -145.34288024902344 -161.94844055175781 -173.12934875488281 -180.08709716796875 -180.08709716796875 -183.24540710449219 -182.51751708984375 -177.31484985351562 -166.33584594726562 -146.76141357421875 -146.76141357421875 -110.83883666992187 -99.921432495117187 -145.5770263671875 -176.97825622558594 -200.41732788085937 -200.41732788085937 -218.80339050292969 -233.68890380859375 -245.98497009277344 -256.27749633789062 -264.96710205078125 -264.96710205078125 -272.33761596679688 -278.594970703125 -283.89108276367188 -288.33990478515625 -292.02786254882812 -292.02786254882812 -295.021240234375 -297.37124633789062 -299.11749267578125 -300.29067993164062 -300.9146728515625 -300.9146728515625 -301.00820922851563 -300.58657836914062 -299.66363525390625 -298.25405883789062 -296.37667846679687 -296.37667846679687 -294.05859375 -291.340576171875 -288.28372192382812 -284.9754638671875 -284.9754638671875 -281.53302001953125 -278.10104370117187 -274.84429931640625 -271.94436645507812 -269.60916137695312 -269.60916137695312 -268.07345581054687 -267.53335571289062 -268.00692749023437 -269.21484375 -270.53955078125 -270.53955078125 -270.95050048828125 -268.60687255859375 -259.71917724609375 -240.67814636230469 -228.88670349121094 -228.88670349121094 -234.82875061035156 -240.38949584960937 -242.92256164550781 -249.26875305175781 -259.59576416015625 -259.59576416015625 -269.04916381835937 -274.49887084960937 -273.81997680664062 -264.591552734375 -241.86807250976562 -241.86807250976562 -187.63273620605469 -146.4683837890625 -208.43089294433594 -251.66856384277344 -275.38104248046875 -275.38104248046875 -291.08428955078125 -302.7691650390625 -311.83181762695312 -318.77490234375 -323.87771606445312 -323.87771606445312 -327.32171630859375 -329.19326782226562 -329.48471069335937 -328.09805297851562 -324.84063720703125 -324.84063720703125 -319.3885498046875 -311.13613891601562 -298.62152099609375 -277.17117309570312 -224.60200500488281 -224.60200500488281 -226.99569702148437 -253.0128173828125 -152.48402404785156 -228.49545288085937 -252.07412719726562 -252.07412719726562 -202.15740966796875 -242.94706726074219 -264.498046875 -288.04302978515625 -281.84188842773437 -281.84188842773437 -307.11550903320312 -322.60888671875 -341.76797485351562 -361.7247314453125 -381.632568359375 -381.632568359375 -401.54217529296875 -427.93307495117187 -459.41543579101563 -489.5733642578125 -489.5733642578125 -516.07098388671875 -538.92962646484375 -551.53167724609375 -582.44866943359375 -628.49114990234375 -628.49114990234375 -618.0721435546875 -605.23779296875 -694.21319580078125 -593.95318603515625 -558.82769775390625 -558.82769775390625 -562.53314208984375 -559.129150390625 -554.31011962890625 -549.855224609375 -544.471923828125 -544.471923828125 -536.70166015625 -536.47796630859375 -539.20538330078125 -527.2353515625 -539.55181884765625 -539.55181884765625
-124.64209747314453 -93.680862426757812 -77.798095703125 -77.798095703125 -117.05756378173828 -142.89561462402344 -160.354736328125 -171.97355651855469 -179.07162475585937 -179.07162475585937 -182.15040588378906 -181.13334655761719 -175.39486694335937 -163.60958862304687 -143.328857421875 -143.328857421875 -108.20414733886719 -105.823486328125 -151.21983337402344 -181.12289428710937 -203.51817321777344 -203.51817321777344 -221.20486450195312 -235.60458374023437 -247.55589294433594 -257.59857177734375 -266.1014404296875 -266.1014404296875 -273.32647705078125 -279.46463012695312 -284.65762329101562 -289.01214599609375 -292.60934448242187 -292.60934448242187 -295.5113525390625 -297.7657470703125 -299.40878295898437 -300.46780395507812 -300.962890625 -300.962890625 -300.90859985351562 -300.31539916992187 -299.19134521484375 -297.54461669921875 -295.38665771484375 -295.38665771484375 -292.73690795898438 -289.62942504882812 -286.12139892578125 -282.30230712890625 -282.30230712890625 -278.3001708984375 -274.27853393554687 -270.42266845703125 -266.9320068359375 -264.04995727539062 -264.04995727539062 -262.10809326171875 -261.4549560546875 -262.21768188476562 -264.1116943359375 -266.46633911132812 -266.46633911132812 -268.321044921875 -268.39028930664062 -265.0640869140625 -258.31857299804687 -253.91319274902344 -253.91319274902344 -255.26980590820313 -258.19821166992187 -261.06890869140625 -265.50674438476562 -271.49734497070312 -271.49734497070312 -276.80752563476562 -279.30181884765625 -277.12469482421875 -267.96795654296875 -247.1295166015625 -247.1295166015625 -198.91937255859375 -133.46684265136719 -200.14976501464844 -246.0181884765625 -270.431884765625 -270.431884765625 -286.82513427734375 -299.53167724609375 -309.56588745117187 -317.20700073242187 -322.75201416015625 -322.75201416015625 -326.442626953125 -328.39984130859375 -328.6201171875 -326.98458862304688 -323.26080322265625 -323.26080322265625 -317.07644653320312 -307.77566528320312 -293.72793579101563 -268.65264892578125 -178.85026550292969 -178.85026550292969 -243.068603515625 -250.6109619140625 -196.20765686035156 -238.80557250976563 -244.92039489746094 -244.92039489746094 -242.72900390625 -277.02557373046875 -292.47982788085937 -293.45321655273438 -312.96548461914062 -312.96548461914062 -338.87167358398437 -355.87493896484375 -373.14920043945313 -391.42062377929687 -410.40826416015625 -410.40826416015625 -430.23544311523437 -452.30239868164062 -476.28158569335938 -500.0970458984375 -500.0970458984375 -522.3482666015625 -542.403076171875 -555.44573974609375 -580.85455322265625 -625.44775390625 -625.44775390625 -618.65753173828125 -603.3253173828125 -646.35223388671875 -603.3226318359375 -565.78436279296875 -565.78436279296875 -559.81268310546875 -559.16229248046875 -555.6358642578125 -551.7120361328125 -541.57635498046875 -541.57635498046875 -541.095703125 -533.62567138671875 -540.802490234375 -532.64312744140625 -546.03118896484375 -546.03118896484375
-125.09181213378906 -92.967498779296875 -56.037322998046875 -56.037322998046875 -105.66197967529297 -137.00422668457031 -156.73454284667969 -169.37855529785156 -176.83146667480469 -176.83146667480469 -179.7760009765625 -178.11866760253906 -171.01420593261719 -156.56065368652344 -130.76731872558594 -130.76731872558594 -84.712615966796875 -124.32647705078125 -161.82623291015625 -188.63810729980469 -209.21757507324219 -209.21757507324219 -225.68589782714844 -239.22686767578125 -250.55772399902344 -260.14297485351562 -268.29983520507812 -268.29983520507812 -275.2537841796875 -281.16989135742187 -286.17129516601562 -290.351318359375 -293.7808837890625 -293.7808837890625 -296.51385498046875 -298.59063720703125 -300.04071044921875 -300.8841552734375 -301.13314819335937 -301.13314819335937 -300.79290771484375 -299.862548828125 -298.33636474609375 -296.20553588867187 -293.46096801757813 -293.46096801757813 -290.098388671875 -286.126708984375 -281.5816650390625 -276.54525756835937 -276.54525756835937 -271.16693115234375 -265.66665649414062 -260.28680419921875 -255.20693969726562 -250.60794067382812 -250.60794067382812 -247.07060241699219 -245.70199584960937 -247.19242858886719 -251.05598449707031 -256.12322998046875 -256.12322998046875 -261.21054077148437 -265.41033935546875 -268.24533081054687 -269.9329833984375 -271.4246826171875 -271.4246826171875 -273.48126220703125 -276.04293823242187 -278.86251831054687 -281.84002685546875 -284.62545776367187 -284.62545776367187 -286.42947387695312 -286.23065185546875 -282.83453369140625 -274.50238037109375 -257.63650512695312 -257.63650512695312 -221.99354553222656 -118.39940643310547 -160.91694641113281 -223.05775451660156 -252.50791931152344 -252.50791931152344 -271.67288208007812 -290.0518798828125 -303.93295288085937 -313.6285400390625 -320.26925659179687 -320.26925659179687 -324.52218627929687 -326.6700439453125 -326.7310791015625 -324.51620483398437 -319.64224243164062 -319.64224243164062 -311.51904296875 -299.29263305664062 -281.28048706054687 -248.59713745117187 -190.99185180664062 -190.99185180664062 -250.68046569824219 -228.95335388183594 -236.88021850585937 -209.63880920410156 -243.80169677734375 -243.80169677734375 -226.0137939453125 -279.78521728515625 -310.47760009765625 -327.09994506835937 -352.94448852539062 -352.94448852539062 -374.67208862304687 -392.95867919921875 -410.54299926757812 -428.29391479492187 -446.25473022460937 -446.25473022460937 -464.23904418945312 -482.15499877929687 -499.87091064453125 -517.115966796875 -517.115966796875 -533.7396240234375 -549.45355224609375 -560.97601318359375 -575.01336669921875 -632.94537353515625 -632.94537353515625 -612.6065673828125 -601.638916015625 -623.10986328125 -622.01995849609375 -582.5413818359375 -582.5413818359375 -566.05078125 -552.43743896484375 -551.09027099609375 -526.62835693359375 -551.7027587890625 -551.7027587890625 -553.13372802734375 -550.40216064453125 -550.6583251953125 -552.08514404296875 -551.66192626953125 -551.66192626953125
-126.00096893310547 -96.737091064453125 -55.997344970703125 -55.997344970703125 -101.73152923583984 -134.3907470703125 -154.95843505859375 -168.04823303222656 -175.66624450683594 -175.66624450683594 -178.541748046875 -176.54484558105469 -168.66108703613281 -152.55972290039062 -123.16693878173828 -123.16693878173828 -79.623985290527344 -130.59353637695312 -166.32194519042969 -192.01141357421875 -211.83186340332031 -211.83186340332031 -227.77021789550781 -240.93072509765625 -251.98332214355469 -261.36148071289063 -269.3607177734375 -269.3607177734375 -276.19088745117187 -282.00570678710937 -286.92010498046875 -291.0211181640625 -294.37490844726562 -294.37490844726562 -297.031494140625 -299.0277099609375 -300.38961791992187 -301.13375854492187 -301.26812744140625 -301.26812744140625 -300.79290771484375 -299.70098876953125 -297.97866821289062 -295.606689453125 -292.56259155273437 -292.56259155273437 -288.82510375976562 -284.38247680664062 -279.24835205078125 -273.48831176757812 -273.48831176757812 -267.25738525390625 -260.82302856445312 -254.49574279785156 -248.40774536132812 -242.46688842773437 -242.46688842773437 -237.27595520019531 -234.97189331054687 -237.05253601074219 -242.53659057617187 -249.53898620605469 -249.53898620605469 -256.53140258789063 -262.58029174804687 -267.337646484375 -270.96649169921875 -274.00570678710937 -274.00570678710937 -276.96548461914062 -280.00927734375 -283.0562744140625 -285.91598510742187 -288.22378540039062 -288.22378540039062 -289.395263671875 -288.68405151367187 -285.16485595703125 -277.43826293945312 -262.61495971679687 -262.61495971679687 -232.1124267578125 -130.68797302246094 -161.80532836914062 -196.61976623535156 -232.71757507324219 -232.71757507324219 -254.47695922851562 -283.172119140625 -300.656494140625 -311.70596313476562 -318.95846557617187 -318.95846557617187 -323.50521850585937 -325.75241088867187 -325.72998046875 -323.19229125976562 -317.62216186523437 -317.62216186523437 -308.18035888671875 -293.63580322265625 -272.17807006835937 -234.66983032226562 -215.27798461914062 -215.27798461914062 -245.85076904296875 -206.13815307617187 -236.59013366699219 -243.44384765625 -238.64285278320312 -238.64285278320312 -247.24513244628906 -294.38946533203125 -327.10092163085937 -347.8448486328125 -368.27841186523437 -368.27841186523437 -387.91180419921875 -406.19168090820312 -424.07696533203125 -442.01388549804687 -459.8848876953125 -459.8848876953125 -477.22662353515625 -493.76260375976562 -509.56756591796875 -524.63934326171875 -524.63934326171875 -539.22198486328125 -553.23046875 -565.1444091796875 -561.32574462890625 -626.6009521484375 -626.6009521484375 -613.47674560546875 -601.6195068359375 -618.8974609375 -629.0601806640625 -595.39703369140625 -595.39703369140625 -575.27166748046875 -570.67718505859375 -557.4443359375 -559.38189697265625 -555.66339111328125 -555.66339111328125 -560.5447998046875 -560.22979736328125 -556.991943359375 -557.59228515625 -554.0977783203125 -554.0977783203125
